ply
format ascii 1.0
element vertex 1193
property float x
property float y
property float z
property uchar red
property uchar green
property uchar blue
end_header
-2.907367 -8.122684 22.610205 245 245 238
-2.882710 -7.181014 22.333075 191 170 143
-2.878364 -6.942091 22.285484 244 224 193
-2.876183 -6.721396 22.312954 203 182 150
-2.883805 -6.639345 22.322596 224 201 167
-2.876222 -6.487299 22.278336 239 216 182
-2.903616 -6.086054 22.455906 221 198 159
-2.917195 -6.054417 22.558485 221 199 157
-3.054380 -5.281707 23.655355 108 83 52
-3.105463 -4.933374 24.028008 161 137 99
-3.166841 -3.874444 24.533978 140 119 90
-3.129159 -2.205740 24.289701 158 147 135
-3.162535 -1.330012 24.536663 49 38 43
-3.148933 -0.315168 24.368477 32 21 19
-3.151167 0.401321 24.354826 47 23 18
-3.145524 0.504453 24.355619 53 33 25
-3.130326 0.917239 24.192829 48 34 27
-2.883691 -7.608175 22.480360 161 136 106
-2.879093 -7.463125 22.417793 234 213 192
-2.876712 -7.299203 22.351873 225 205 176
-2.875617 -6.842001 22.363754 243 222 186
-2.843505 -6.171229 22.166220 151 135 118
-3.122241 -4.716325 24.296989 134 105 62
-3.132180 -4.612503 24.371742 112 84 44
-3.140856 -4.448258 24.407839 142 121 88
-3.131098 -3.448220 24.364296 131 105 74
-3.133044 -3.382447 24.321045 139 119 87
-3.129032 -3.218997 24.344244 120 101 75
-3.141461 -2.981209 24.474487 141 120 94
-3.153390 -1.498643 24.548908 49 36 39
-3.155350 -1.229944 24.552572 46 34 36
-3.129843 -0.198088 24.316597 40 24 21
-3.122897 -0.115858 24.282124 51 33 27
-3.104732 0.590629 24.154400 52 31 25
-3.105915 1.479244 24.125912 42 29 22
-2.866719 1.696480 22.354366 76 75 79
-2.867571 1.738124 22.339367 242 236 221
-2.816046 1.883782 21.865683 75 65 57
-2.793641 2.009317 21.719076 174 151 153
-2.894131 -7.925869 22.639816 197 182 152
-2.865334 -7.430004 22.409245 251 235 203
-2.865493 -7.078568 22.384703 240 218 182
-2.898930 -5.814229 22.743599 135 107 68
-2.922755 -5.700683 22.895939 120 91 51
-2.940466 -5.628154 22.957481 126 98 58
-3.030734 -5.363513 23.635077 117 91 56
-3.031048 -5.185016 23.728357 117 93 56
-3.028842 -5.034044 23.632942 103 75 38
-3.134582 -3.750541 24.479366 126 106 80
-3.115797 -3.605333 24.430304 129 105 79
-3.117456 -3.423981 24.364134 143 118 86
-3.145321 -2.109582 24.580929 53 37 38
-3.137173 -1.186594 24.553497 37 24 27
-3.130994 -0.829794 24.492540 57 42 39
-3.113328 -0.233222 24.326029 57 36 34
-3.093221 0.082148 24.218155 45 28 21
-3.095880 0.871703 24.233421 39 26 19
-3.079561 1.073567 24.125160 38 26 21
-3.090936 1.241579 24.109423 49 32 25
-3.087236 1.297396 24.117149 48 34 29
-2.713036 2.287993 21.246157 165 144 114
-2.634350 2.547584 20.604088 187 163 128
-2.860343 -6.014012 22.501970 179 164 120
-3.011951 -5.204417 23.652094 110 85 55
-3.113795 -3.667911 24.485573 140 119 92
-3.111093 -3.575630 24.450514 142 116 89
-3.087159 -3.187206 24.329788 120 103 83
-3.104896 -3.101185 24.353468 128 107 78
-3.129007 -1.287958 24.519903 43 31 35
-3.122742 -1.098193 24.546467 59 39 41
-3.081972 0.048062 24.222408 45 33 30
-3.089653 0.717560 24.260880 56 32 24
-2.852081 1.625980 22.414633 30 29 34
-2.820330 -6.321469 22.241365 228 209 174
-2.828015 -6.056045 22.324888 215 192 151
-2.820333 -5.836745 22.313313 133 103 63
-2.900524 -5.686967 22.854683 133 103 64
-2.897025 -5.550250 22.913439 133 105 68
-2.973313 -5.501992 23.432106 122 93 63
-3.116806 -3.929041 24.537785 154 130 103
-3.102803 -3.594799 24.428307 136 110 83
-3.078804 -3.322655 24.341908 145 121 96
-3.117041 -1.855230 24.610815 56 55 69
-3.117360 -1.594773 24.566223 65 57 67
-3.098665 -0.903276 24.496572 58 41 41
-3.097133 -0.678677 24.420055 60 41 37
-3.063527 0.576201 24.150911 55 33 26
-3.058811 1.166457 24.105202 57 38 28
-2.612196 2.535573 20.592054 217 189 152
-2.596617 2.666988 20.473619 159 133 85
-2.816821 -7.127378 22.408117 240 221 188
-2.977996 -5.296338 23.657227 107 87 53
-3.090595 -4.084059 24.515099 141 121 88
-3.075690 -2.105789 24.372398 62 43 43
-3.092113 -1.739055 24.493912 58 55 65
-3.086849 -1.517353 24.468113 62 50 60
-3.093271 -1.500602 24.483789 58 47 55
-3.081383 -1.434386 24.480997 59 49 53
-3.083778 -0.852613 24.470829 56 37 36
-3.079345 -0.636784 24.377636 54 33 28
-3.063777 -0.328133 24.340065 31 25 25
-3.041279 0.215422 24.185474 29 24 24
-2.814566 1.757501 22.334209 226 212 218
-2.788761 1.816307 22.097046 138 118 97
-2.662048 2.395924 21.086224 203 173 137
-2.604930 2.519409 20.613354 221 194 189
-2.509416 2.940616 19.894756 207 185 159
-2.807533 -6.926544 22.392635 245 225 192
-2.804680 -6.731230 22.343699 241 221 184
-2.795142 -6.071349 22.270950 224 200 159
-3.049816 -4.664870 24.265612 137 113 68
-3.063677 -4.480983 24.358480 120 93 63
-3.080614 -4.247491 24.580050 132 109 78
-3.084929 -2.014743 24.541990 71 60 72
-3.075615 -1.096839 24.473881 55 38 37
-3.051491 -0.158651 24.295105 30 29 35
-3.031921 0.288300 24.165791 57 34 22
-3.030179 1.246199 24.179693 45 30 25
-3.028950 1.516849 24.131161 44 29 22
-2.808348 1.607666 22.352837 32 31 36
-2.733670 2.005006 21.781269 166 146 147
-2.660854 2.281070 21.259531 243 235 229
-2.580479 2.609310 20.586981 159 122 83
-2.776954 -7.916245 22.296631 216 206 188
-2.813069 -7.958042 22.472958 220 208 187
-2.799262 -7.085025 22.390472 246 227 194
-2.779777 -6.112576 22.221098 188 156 134
-2.931016 -5.397420 23.480753 118 89 57
-2.955279 -5.238375 23.635008 118 91 62
-3.070485 -4.406319 24.562681 152 127 90
-3.071657 -4.090854 24.544180 135 114 87
-3.054079 -3.004319 24.451550 127 107 81
-3.057395 -2.719748 24.495337 118 102 89
-3.050109 -0.973204 24.415384 56 40 40
-3.025778 0.343073 24.166878 55 33 20
-3.020187 0.544641 24.180613 61 37 25
-3.032444 0.748983 24.282696 56 37 28
-2.934173 1.593567 23.432266 33 28 29
-2.760829 -7.958397 22.277903 238 241 230
-2.801811 -7.740723 22.540663 227 210 182
-2.785784 -7.298926 22.389540 235 215 182
-2.781955 -7.184732 22.368208 241 221 188
-2.804115 -5.976122 22.600454 125 103 62
-2.787464 -5.812976 22.385489 125 99 62
-2.872374 -5.500587 23.155296 116 89 52
-2.998619 -4.794059 24.167433 142 119 82
-3.062026 -4.328763 24.625525 138 117 86
-3.062253 -4.001958 24.582472 156 132 103
-3.055927 -1.713919 24.526144 56 54 65
-3.046542 -1.549911 24.515804 54 46 57
-3.040018 -1.428280 24.498545 59 47 55
-3.039214 -1.165698 24.438175 52 38 44
-3.044653 -0.886702 24.422768 53 34 35
-3.032339 -0.645788 24.358112 59 38 35
-3.026849 -0.383499 24.371439 38 24 22
-3.015400 0.810715 24.274900 57 34 22
-3.011963 0.839456 24.273411 61 39 26
-3.013538 0.905776 24.268145 54 36 32
-3.003884 1.176813 24.180061 58 40 26
-2.770348 1.779409 22.292719 146 123 121
-2.479356 2.779260 19.999422 157 134 147
-2.476734 2.908157 19.904539 168 142 108
-2.472722 2.938276 19.907486 127 103 73
-2.781814 -7.467905 22.460297 245 228 200
-2.779025 -7.407754 22.442242 232 213 180
-2.771088 -6.836584 22.391394 245 225 190
-2.775942 -6.603306 22.415794 225 202 168
-2.771479 -6.542203 22.412580 241 218 184
-2.841338 -5.722286 22.989033 126 96 57
-2.839309 -5.626597 22.990072 128 100 60
-3.031306 -3.759182 24.507448 158 137 108
-3.028063 -3.499111 24.443216 146 129 102
-3.019294 -3.091450 24.343033 145 124 97
-3.011539 -2.854066 24.358704 144 126 107
-3.018634 -2.449937 24.369659 159 153 141
-3.002407 -2.347244 24.295782 149 147 141
-2.993732 -2.154425 24.188950 62 41 28
-3.019605 -0.988628 24.398531 55 41 42
-3.028223 -0.757218 24.422272 59 40 36
-3.010000 -0.083458 24.273733 25 18 18
-2.996167 0.010822 24.249891 20 14 11
-2.725485 1.842215 21.986696 97 84 75
-2.715916 1.855614 21.926218 78 66 60
-2.667739 2.158008 21.612823 134 105 76
-2.638401 2.267081 21.296509 177 161 168
-2.538219 2.667994 20.534750 188 164 121
-2.742721 -6.315196 22.308163 240 219 184
-2.775531 -6.027371 22.578667 226 203 164
-2.869696 -5.457040 23.321983 109 85 50
-2.925091 -5.063204 23.702570 114 84 48
-2.972991 -4.919026 24.178482 110 93 62
-3.028973 -4.109003 24.602409 130 112 86
-3.014751 -3.690148 24.493172 147 126 97
-2.998730 -3.400634 24.395102 147 124 90
-2.997659 -3.212435 24.323446 140 122 100
-3.056860 -2.124590 24.829378 64 55 66
-3.019772 -1.266559 24.468380 60 45 50
-3.004192 -0.679623 24.415979 59 40 35
-2.977832 0.544915 24.194746 64 42 29
-2.518324 2.681093 20.471336 146 127 84
-2.494522 2.706306 20.185059 250 233 209
-2.753280 -6.817666 22.408110 246 226 191
-2.741170 -6.693467 22.387529 218 198 161
-2.737739 -6.049984 22.344456 217 193 155
-2.815985 -5.818294 22.999054 117 87 50
-2.859438 -5.479915 23.327774 115 91 57
-2.892992 -5.243619 23.568989 107 81 54
-2.969789 -5.035276 24.239504 161 143 111
-2.964295 -4.675249 24.211775 96 79 60
-2.986907 -4.531135 24.361856 150 121 81
-2.993158 -2.558862 24.413733 147 136 132
-3.011202 -1.709877 24.572092 47 42 57
-2.966781 0.982224 24.255495 32 21 18
-2.967536 1.336837 24.227753 51 32 26
-2.663995 2.123853 21.696575 201 169 129
-2.449330 2.776129 20.009592 162 141 144
-2.440139 2.934960 19.906691 189 160 128
-2.721926 -7.955723 22.314381 253 254 245
-2.740432 -7.561943 22.517843 223 193 159
-2.738647 -5.893274 22.476685 132 103 64
-2.780400 -5.852034 22.771460 119 87 57
-2.985862 -3.900380 24.505758 159 137 113
-2.971727 -2.961311 24.386574 135 118 92
-2.976832 -2.722136 24.402061 113 97 82
-2.952860 -2.329970 24.220230 88 83 78
-2.999573 -1.879359 24.594296 49 50 69
-2.994754 -0.900879 24.507494 51 35 35
-2.973651 -0.327361 24.365042 36 26 25
-2.959541 0.645278 24.283270 58 36 24
-2.955471 1.411001 24.208817 50 35 28
-2.956668 1.539819 24.200542 48 32 23
-2.809225 1.534436 23.015202 42 32 28
-2.665234 1.976452 21.828840 138 138 126
-2.656095 2.042127 21.779951 233 213 180
-2.522415 2.523533 20.677338 222 205 195
-2.422743 2.861189 19.940941 166 143 106
-2.416857 3.076670 19.875416 233 213 181
-2.732049 -7.028170 22.481546 240 220 185
-2.708927 -6.378028 22.359024 230 209 177
-2.699494 -6.269666 22.306396 229 210 172
-2.847638 -5.357503 23.437864 125 99 64
-2.857793 -5.172585 23.619795 115 90 57
-2.955885 -4.601424 24.358648 151 122 82
-2.973167 -4.139164 24.544523 132 111 81
-2.973446 -1.512368 24.522957 56 44 55
-2.975372 -0.995568 24.521576 52 37 37
-2.962351 -0.547627 24.471497 54 34 29
-2.934705 0.382128 24.218657 64 39 26
-2.943188 0.792581 24.317682 53 33 24
-2.665976 1.863758 21.978388 85 74 70
-2.629327 2.163599 21.643311 189 160 115
-2.719528 -7.811934 22.531233 203 188 159
-2.708037 -7.357328 22.444218 232 212 177
-2.693142 -7.228887 22.354694 236 216 183
-2.707285 -7.137219 22.467175 243 223 190
-2.685999 -6.109930 22.215242 233 205 167
-2.939571 -3.505501 24.457151 137 117 93
-2.940074 -2.875209 24.318445 132 111 84
-2.960989 -1.924177 24.475128 63 58 72
-2.962896 -1.359943 24.536505 49 38 46
-2.957962 -0.656377 24.471752 56 36 36
-2.942381 -0.270850 24.369631 58 39 32
-2.946610 -0.238481 24.342678 51 33 30
-2.932974 -0.096101 24.283150 52 31 24
-2.924773 0.526111 24.217445 63 38 31
-2.936169 0.775712 24.291613 56 36 28
-2.918844 1.089404 24.211414 57 39 29
-2.919899 1.248221 24.152056 51 37 30
-2.694139 1.597163 22.310347 29 27 32
-2.683424 1.731742 22.261736 217 216 205
-2.399577 2.952359 19.906935 214 184 139
-2.659222 -7.779081 22.174118 220 208 186
-2.676766 -7.530180 22.410484 219 191 154
-2.690587 -7.249261 22.368071 236 216 183
-2.700538 -6.772942 22.443720 243 224 191
-2.675658 -6.359504 22.297674 235 216 184
-2.763008 -5.706800 23.049208 128 100 60
-2.834538 -5.317731 23.553951 117 89 52
-2.921263 -4.929256 24.332235 122 114 104
-2.963514 -4.271069 24.605026 148 124 92
-2.939631 -3.903525 24.445913 110 89 65
-2.921594 -3.353000 24.367893 122 102 78
-2.914944 -2.395273 24.295700 150 143 132
-2.906402 -2.308743 24.244972 155 146 136
-2.957875 -0.788139 24.585915 49 31 33
-2.940493 -0.729241 24.538586 54 34 33
-2.940872 -0.690333 24.513012 58 37 39
-2.937553 -0.370027 24.411369 59 35 29
-2.908106 0.215654 24.185194 61 38 33
-2.904884 0.309078 24.198929 64 45 30
-2.906060 0.351261 24.216585 62 42 33
-2.908082 1.181074 24.200356 47 30 23
-2.526103 2.415403 21.037331 199 175 129
-2.396877 2.782705 19.965080 228 209 194
-2.668648 -6.525767 22.341051 236 216 183
-2.658525 -6.090716 22.252508 242 217 181
-2.753532 -5.783186 23.044542 132 102 61
-2.815433 -5.170298 23.611752 113 83 54
-2.830143 -5.045553 23.694836 128 98 63
-2.910887 -4.819494 24.305193 118 116 123
-2.922400 -3.505740 24.454332 125 105 80
-2.918601 -3.229904 24.357912 141 120 99
-2.917446 -3.131335 24.349710 133 110 82
-2.913366 -3.042811 24.390476 146 125 87
-2.917813 -2.583912 24.416647 151 139 132
-2.934213 -1.624969 24.554512 63 52 60
-2.930839 -1.546724 24.538528 61 50 59
-2.938532 -1.007073 24.554247 59 40 41
-2.933482 -0.922255 24.553982 52 34 34
-2.931535 -0.861444 24.547810 47 31 33
-2.897303 0.112268 24.196978 48 30 27
-2.895282 0.438827 24.225874 53 33 22
-2.896872 0.469155 24.228735 51 29 22
-2.886700 1.534918 24.145864 40 30 28
-2.608398 2.028960 21.815054 218 199 180
-2.381831 2.951072 19.891100 182 153 114
-2.676229 -6.060659 22.457722 232 210 169
-2.707299 -6.045891 22.713881 216 197 155
-2.888487 -4.698752 24.285191 120 106 85
-2.896317 -4.631993 24.349073 135 106 71
-2.905462 -3.630211 24.469578 144 124 97
-2.902544 -3.075826 24.371088 137 118 89
-2.915469 -2.045960 24.490831 66 55 64
-2.922127 -1.128533 24.501944 57 46 52
-2.897832 -0.398035 24.334732 67 40 39
-2.889771 0.992459 24.295425 37 26 24
-2.451562 2.537255 20.631874 252 235 204
-2.596286 -7.753679 21.969244 212 208 192
-2.632869 -6.704217 22.365904 241 221 188
-2.642594 -6.610394 22.373575 238 217 188
-2.637859 -6.075694 22.303955 243 222 184
-2.701344 -5.875384 22.787720 118 94 60
-2.755216 -5.474381 23.294920 115 91 60
-2.768735 -5.388752 23.429146 134 108 71
-2.792058 -5.120139 23.620470 119 95 54
-2.901357 -4.452003 24.492153 146 122 88
-2.896498 -3.736351 24.456835 155 131 103
-2.886747 -3.361283 24.349979 127 103 68
-2.870864 -2.319925 24.238304 94 86 82
-2.897066 -1.986515 24.438011 71 58 67
-2.889097 -1.796461 24.426868 45 41 51
-2.894881 -1.723810 24.443455 66 48 56
-2.893996 -1.239633 24.440540 59 42 48
-2.883630 -1.165393 24.409973 55 37 41
-2.873810 -0.004651 24.283995 45 31 30
-2.571904 2.093576 21.799347 209 185 141
-2.565471 2.165445 21.688459 145 116 82
-2.511728 2.311338 21.218504 230 201 182
-2.600151 -6.894525 22.111589 238 218 185
-2.630599 -6.515162 22.352213 243 223 190
-2.612519 -6.153739 22.232653 171 146 115
-2.678782 -5.792525 22.789728 127 97 60
-2.720551 -5.815798 23.055822 109 76 42
-2.715118 -5.753878 23.074358 100 70 34
-2.719316 -5.650589 23.095381 101 71 34
-2.717356 -5.532809 23.146544 120 91 57
-2.769513 -5.271747 23.541731 102 79 48
-2.873224 -4.988291 24.417389 94 78 51
-2.873240 -3.788134 24.446697 137 116 87
-2.871585 -3.188474 24.379206 118 100 81
-2.870632 -2.979242 24.370857 141 119 101
-2.856334 -2.831376 24.295143 140 124 104
-2.877421 -2.587236 24.418047 84 76 66
-2.866976 -1.835295 24.325617 61 52 61
-2.850469 -1.634025 24.224268 58 44 53
-2.862961 -1.334016 24.297443 58 39 38
-2.867216 -0.456051 24.351749 49 34 33
-2.864564 -0.158868 24.352049 40 30 28
-2.865355 0.651892 24.300751 42 27 25
-2.530540 2.246416 21.487900 255 253 250
-2.348693 2.811436 19.958946 206 181 164
-2.563319 -6.895328 21.867699 234 214 179
-2.622875 -6.722195 22.390486 244 224 191
-2.615885 -6.397513 22.349936 234 215 182
-2.739385 -5.419856 23.397451 123 95 60
-2.849663 -4.857816 24.389095 122 106 82
-2.848802 -2.428836 24.320086 147 146 134
-2.832058 -2.183732 24.193661 107 93 83
-2.820603 -1.496158 24.134407 56 41 44
-2.846068 -1.027777 24.296900 48 35 39
-2.853667 -0.556961 24.376842 48 34 34
-2.848201 0.326346 24.256441 37 26 25
-2.842371 1.222908 24.266668 40 26 26
-2.834448 1.543852 24.163260 34 26 24
-2.591349 1.833195 22.109753 91 78 69
-2.475218 2.384394 21.149158 215 187 139
-2.379554 2.684744 20.351133 160 145 106
-2.619012 -6.808036 22.422369 239 219 186
-2.744754 -5.092147 23.572317 119 95 59
-2.850334 -4.959689 24.423130 118 103 71
-2.835136 -4.657222 24.354961 142 114 77
-2.834846 -4.567231 24.376886 139 110 70
-2.851233 -4.363632 24.467142 134 111 81
-2.847051 -4.010221 24.420553 133 113 81
-2.856723 -3.871363 24.421383 143 122 92
-2.841257 -3.498441 24.400532 129 109 85
-2.839455 -3.262808 24.340153 133 111 93
-2.806642 -1.589005 24.196413 52 42 42
-2.823308 -1.380579 24.244570 53 38 41
-2.851395 -0.820841 24.416849 49 34 37
-2.848333 -0.450534 24.389326 46 31 34
-2.834729 0.017597 24.362019 42 31 30
-2.822488 0.675672 24.240543 43 29 27
-2.826946 0.764187 24.239594 44 29 25
-2.836069 0.862948 24.376900 39 25 22
-2.394206 2.583326 20.540524 167 137 104
-2.306172 3.051254 19.838871 242 219 186
-2.509916 -6.906859 21.649725 244 221 190
-2.503991 -6.684541 21.685728 237 217 183
-2.595827 -6.600731 22.429489 241 221 188
-2.588642 -6.418085 22.348730 240 221 188
-2.675859 -5.783013 23.086283 124 92 54
-2.685889 -5.542989 23.151117 105 76 39
-2.714986 -5.359621 23.424805 107 79 42
-2.730567 -5.211997 23.599365 114 89 59
-2.838346 -4.454573 24.472357 159 135 99
-2.828218 -3.092180 24.434404 131 111 85
-2.826574 -2.527261 24.401371 134 126 117
-2.796451 -2.060577 24.076710 64 52 59
-2.802419 -1.893270 24.185516 58 46 54
-2.805068 -1.873620 24.193012 56 44 50
-2.806791 -1.135133 24.226925 46 36 39
-2.808440 -0.991687 24.275778 41 32 38
-2.827734 -0.921777 24.406836 45 33 37
-2.830060 -0.708342 24.392590 47 32 38
-2.839460 -0.563888 24.400278 49 34 38
-2.827315 -0.025904 24.393105 42 32 31
-2.805386 0.458657 24.178497 39 29 27
-2.299194 2.935445 19.892776 189 162 130
-2.325702 -6.399980 20.217159 236 215 184
-2.584408 -6.501992 22.382563 238 218 183
-2.638236 -6.048476 22.876419 186 167 125
-2.638053 -5.890430 22.841923 128 103 63
-2.636214 -5.781690 22.847385 111 80 42
-2.660568 -5.719619 23.112795 110 80 42
-2.782840 -5.086527 24.176468 165 146 121
-2.820546 -4.972084 24.479980 104 87 61
-2.809320 -4.731656 24.358835 105 86 62
-2.818792 -4.110780 24.450811 110 92 70
-2.817915 -3.863195 24.393621 159 140 110
-2.817077 -3.802300 24.400860 148 127 100
-2.812996 -3.635206 24.450100 124 106 85
-2.810909 -3.354582 24.330166 128 108 84
-2.813872 -2.778707 24.423792 139 122 95
-2.795583 -1.592295 24.202137 50 39 43
-2.792183 -1.560801 24.197092 51 40 44
-2.798392 -1.198751 24.194962 46 36 38
-2.803560 -0.606927 24.318151 45 30 33
-2.787476 1.265854 24.215290 41 27 24
-2.797079 1.333418 24.248859 38 27 23
-2.578035 1.607581 22.292856 28 26 30
-2.515258 2.044966 21.840099 145 117 97
-2.514449 2.083459 21.813015 147 126 99
-2.377016 2.525213 20.652189 195 183 184
-2.335646 2.686615 20.305445 186 173 136
-2.294472 -6.220231 20.034441 240 220 185
-2.545862 -6.651084 22.249651 239 221 188
-2.562515 -6.610684 22.373392 243 224 191
-2.555584 -6.328522 22.333040 242 219 185
-2.557571 -6.047600 22.281500 242 220 183
-2.656152 -5.598358 23.141182 127 99 60
-2.677044 -5.456274 23.368982 105 76 46
-2.698412 -5.323122 23.541618 108 78 42
-2.799015 -2.593724 24.429304 104 95 88
-2.782611 -2.329758 24.231010 82 79 70
-2.776257 -2.124260 24.180912 50 37 33
-2.776330 -1.486593 24.152592 50 40 48
-2.763014 -1.410897 24.097134 50 38 47
-2.779098 -0.312946 24.329363 27 22 29
-2.797923 -0.044404 24.395901 35 29 33
-2.783853 1.070838 24.295542 40 32 28
-2.784916 1.196734 24.278444 44 30 28
-2.782939 1.225525 24.261221 42 26 26
-2.552162 1.553550 22.299599 31 30 36
-2.372343 -6.781389 20.851046 229 206 172
-2.300761 -6.339220 20.148649 243 223 190
-2.290188 -6.116887 20.107132 240 219 187
-2.683970 -5.273227 23.560959 110 85 55
-2.790605 -4.889891 24.468847 80 64 36
-2.784814 -4.686494 24.385952 110 83 47
-2.790485 -4.369323 24.442261 150 125 95
-2.787527 -4.252862 24.439178 138 116 86
-2.786005 -3.801088 24.418055 139 114 86
-2.787541 -3.711592 24.435781 145 125 100
-2.785587 -3.562478 24.406971 136 114 90
-2.779784 -3.236684 24.379177 126 107 74
-2.791574 -3.159307 24.350540 136 116 95
-2.752714 -1.710493 24.183702 50 42 55
-2.748038 -1.164249 24.046049 47 37 45
-2.745394 -1.125017 24.013119 43 33 42
-2.761240 0.631474 24.178398 46 31 27
-2.773274 1.173551 24.302494 40 29 26
-2.528357 1.850911 22.116467 85 73 63
-2.427276 2.321404 21.167992 224 193 164
-2.274932 2.799022 19.935411 145 116 105
-2.347793 -6.713791 20.746450 234 212 175
-2.641179 -5.533706 23.242260 105 76 42
-2.761153 -2.891529 24.293880 135 118 92
-2.749542 -2.261315 24.253614 102 91 94
-2.740636 -1.971199 24.113720 54 51 65
-2.742717 -1.827290 24.173185 57 53 64
-2.749297 -1.519321 24.152334 52 40 55
-2.723644 -1.084103 23.988512 41 34 43
-2.748171 0.479961 24.210608 47 34 28
-2.750902 0.579272 24.151993 41 27 25
-2.756660 1.304182 24.285599 47 32 25
-2.541632 1.587884 22.345596 31 31 35
-2.472185 2.080034 21.742928 156 132 99
-2.388426 2.423876 21.079491 217 184 150
-2.610667 -5.730675 23.125757 121 96 58
-2.649661 -5.361327 23.458349 125 100 60
-2.755960 -3.915240 24.405535 123 103 76
-2.733285 -2.185416 24.175394 68 55 49
-2.738592 -1.665078 24.248167 50 42 53
-2.711261 -1.139241 24.011368 48 37 44
-2.710400 -0.798558 24.066820 49 35 34
-2.743618 0.243061 24.315496 35 36 37
-2.741558 0.361926 24.278673 44 28 29
-2.741065 0.809250 24.280245 46 28 24
-2.448357 2.148405 21.682570 237 204 163
-2.389188 2.328336 21.168200 198 170 129
-2.283763 -6.656836 20.354008 233 214 177
-2.497572 -6.420830 22.246447 233 214 181
-2.525200 -6.023035 22.517862 228 206 172
-2.560099 -5.761701 22.828281 115 84 48
-2.608561 -5.626316 23.185678 129 103 69
-2.653051 -5.157214 23.646070 87 62 32
-2.653507 -5.046623 23.647690 104 71 39
-2.758105 -5.112528 24.593513 159 141 108
-2.760823 -5.079017 24.580259 159 134 101
-2.746124 -4.699982 24.428228 125 94 50
-2.758470 -4.408178 24.475346 149 125 91
-2.749486 -3.665091 24.431662 154 132 107
-2.731998 -3.368026 24.365896 134 112 85
-2.742769 -3.011115 24.415878 121 103 84
-2.727914 -1.623843 24.271198 44 41 55
-2.725813 -1.584663 24.266106 45 42 53
-2.715100 -1.423719 24.154905 54 43 57
-2.717279 -0.730728 24.100073 51 35 35
-2.704787 -0.659925 24.147999 51 34 39
-2.711954 -0.619651 24.169306 53 36 40
-2.723943 -0.344048 24.221981 41 39 46
-2.724314 0.742302 24.240255 45 27 23
-2.722431 1.110427 24.228966 29 22 22
-2.449014 1.957620 21.815397 94 89 82
-2.378083 2.372836 21.139635 207 180 137
-2.228000 2.926805 19.891325 208 178 144
-2.239765 -6.165030 20.069027 244 224 189
-2.472309 -6.035291 22.134972 229 206 172
-2.738321 -4.485969 24.489933 119 96 65
-2.725385 -4.278275 24.436548 155 130 99
-2.739810 -4.102775 24.464132 132 115 87
-2.716596 -2.851512 24.277544 134 111 93
-2.710779 -2.826661 24.298916 140 119 95
-2.712163 -1.796528 24.272194 42 48 65
-2.703284 -1.391498 24.151659 49 42 55
-2.678645 -0.981581 23.964336 44 34 43
-2.727281 0.321985 24.327602 41 30 28
-2.712282 0.480732 24.242645 45 28 26
-2.717104 0.771610 24.231964 46 29 22
-2.708317 0.908426 24.265942 28 23 24
-2.706219 1.188097 24.226944 44 28 26
-2.710792 1.255518 24.231543 47 29 25
-2.499393 1.635623 22.366686 29 29 28
-2.425640 2.107121 21.698824 234 207 159
-2.290109 2.567163 20.484421 203 179 157
-2.255472 -6.051164 20.319330 240 220 187
-2.254321 -5.971281 20.280405 236 217 183
-2.447060 -5.796469 22.072294 221 199 158
-2.585258 -5.596243 23.200783 120 94 59
-2.720247 -4.862456 24.474815 96 67 38
-2.718544 -3.780701 24.436529 160 143 118
-2.719120 -3.714091 24.491795 163 143 118
-2.722149 -3.528746 24.431837 134 117 97
-2.693229 -1.742308 24.248842 31 41 53
-2.677898 -1.275142 24.096451 50 40 51
-2.672462 -1.080586 23.973736 48 38 43
-2.696782 -0.499208 24.216785 42 29 30
-2.695308 -0.431298 24.212145 42 27 34
-2.698013 -0.146804 24.241491 26 18 20
-2.685969 0.633452 24.181742 49 30 26
-2.451772 1.869920 21.990805 82 73 69
-2.209898 2.860693 19.919765 139 111 84
-2.454292 -6.372725 22.255196 234 214 181
-2.589406 -5.459797 23.442150 124 96 64
-2.613097 -5.256610 23.595873 97 72 41
-2.610659 -5.200633 23.629904 109 84 53
-2.703511 -4.658616 24.480776 140 111 69
-2.665194 -1.941637 24.144941 50 40 48
-2.470654 1.761623 22.309502 132 131 139
-2.401995 2.023757 21.706675 246 237 221
-2.252348 2.680322 20.374182 162 136 91
-2.101826 -6.716926 19.196653 218 217 202
-2.121807 -6.664499 19.420374 185 174 144
-2.226654 -6.719761 20.247965 173 161 116
-2.563083 -5.518071 23.367546 107 84 52
-2.585137 -5.379405 23.521811 104 78 45
-2.676944 -5.095302 24.421818 163 148 121
-2.687459 -4.739312 24.501280 127 96 52
-2.686385 -3.622022 24.416252 140 118 91
-2.668938 -2.363398 24.298689 144 135 130
-2.659057 -2.190756 24.210381 50 35 28
-2.656687 -1.914901 24.155779 48 36 46
-2.650907 -1.014285 24.120337 43 34 39
-2.660665 0.008602 24.286575 40 25 25
-2.668221 0.420506 24.315765 51 33 31
-2.666920 0.941670 24.202698 40 31 29
-2.664294 1.068025 24.241285 43 33 31
-2.391984 1.953509 21.749580 94 94 85
-2.246831 2.559946 20.527018 222 197 167
-2.180323 2.956249 19.845789 176 147 120
-2.117865 -6.572388 19.440456 180 173 126
-2.219147 -6.381094 20.316240 238 218 185
-2.222975 -6.194537 20.349880 240 220 185
-2.221148 -6.051334 20.308372 242 222 187
-2.230935 -5.994565 20.382679 242 222 188
-2.218039 -5.944938 20.359035 243 223 190
-2.250188 -5.958632 20.652176 242 221 188
-2.521079 -5.746293 23.085510 128 100 62
-2.674468 -4.526404 24.455788 103 80 46
-2.670933 -4.296997 24.384575 124 100 69
-2.668604 -3.466964 24.435314 110 89 68
-2.649912 -1.812626 24.185787 36 44 60
-2.643098 -1.430085 24.165089 46 41 53
-2.635508 -1.235057 24.152298 41 34 47
-2.642653 -0.978027 24.141441 47 35 39
-2.642298 -0.686461 24.176027 50 36 36
-2.645536 -0.570593 24.197935 48 32 33
-2.298563 2.431045 21.048473 166 138 95
-2.241532 2.623970 20.490034 236 213 158
-2.203335 -6.293147 20.293055 244 224 188
-2.401840 -5.981890 22.161829 236 216 181
-2.524147 -5.756931 23.238930 123 96 59
-2.546573 -5.467492 23.419685 116 89 59
-2.660740 -4.843288 24.540483 112 83 40
-2.652045 -4.099514 24.355497 147 126 96
-2.647397 -4.021068 24.362804 129 108 81
-2.665548 -3.027456 24.445845 122 104 80
-2.653182 -2.431560 24.340483 89 79 75
-2.626812 -1.356241 24.139780 42 37 52
-2.633103 -0.483648 24.217535 46 33 35
-2.635378 -0.284959 24.270151 52 39 38
-2.638057 -0.202633 24.273905 42 32 32
-2.644879 0.331570 24.325672 43 28 27
-2.645075 0.504004 24.299088 48 29 24
-2.636047 0.586956 24.251139 51 32 25
-2.633637 0.650037 24.216604 50 31 24
-2.632185 1.073439 24.226168 49 37 31
-2.357166 2.049730 21.678844 208 183 155
-2.348732 2.083730 21.654312 254 229 187
-2.160609 2.871685 19.909258 211 188 145
-2.174944 -6.513178 20.155685 226 204 167
-2.397778 -6.175495 22.230341 237 217 182
-2.556921 -5.142639 23.685846 102 81 50
-2.647268 -4.615343 24.489128 146 121 84
-2.643136 -3.143136 24.459431 142 118 89
-2.647357 -2.588329 24.437819 84 74 64
-2.633178 -2.354285 24.284895 78 70 55
-2.618707 -2.090580 24.240616 47 44 55
-2.612233 -1.586943 24.174641 46 40 52
-2.615607 -0.514934 24.201065 49 33 36
-2.623742 -0.153602 24.265745 51 34 32
-2.619765 0.790856 24.170759 57 38 31
-2.231012 2.536389 20.593948 226 198 177
-2.141603 2.821072 19.892359 227 199 174
-2.384786 -6.200660 22.165314 245 222 188
-2.375684 -5.849615 22.083469 235 213 176
-2.511709 -5.676355 23.318745 125 97 60
-2.544836 -5.334233 23.623589 101 77 44
-2.538745 -5.032815 23.669537 116 87 53
-2.633827 -4.687850 24.547649 130 105 64
-2.621987 -4.326414 24.431217 141 113 75
-2.616575 -3.923061 24.345209 110 86 59
-2.591971 -0.716265 24.133074 54 35 38
-2.597851 -0.601623 24.144987 52 32 34
-2.604267 -0.081330 24.251535 49 31 31
-2.618445 0.428288 24.331896 52 34 30
-2.587466 0.928030 24.117044 39 32 27
-2.593057 1.223718 24.119169 43 29 23
-2.339111 1.954368 21.742716 97 93 84
-2.325205 2.179715 21.613646 193 161 120
-2.280296 2.321727 21.200422 218 190 154
-2.073876 -6.640026 19.396458 158 153 118
-2.161539 -6.493175 20.189178 223 201 167
-2.170329 -5.983068 20.279905 244 224 191
-2.362823 -5.951688 22.077372 241 218 183
-2.361959 -5.800941 22.086239 214 189 148
-2.501469 -5.610209 23.332451 124 98 61
-2.518592 -5.376681 23.560875 110 82 53
-2.526246 -5.276650 23.664921 105 80 52
-2.617569 -4.459526 24.508244 146 121 89
-2.613025 -4.288432 24.431688 115 95 65
-2.606354 -4.202794 24.427900 124 99 74
-2.597381 -2.849328 24.313173 112 95 79
-2.592558 -2.036216 24.265074 53 41 50
-2.587982 -1.785984 24.219154 36 44 60
-2.582268 -1.504645 24.193182 44 39 52
-2.582957 -1.473825 24.188055 50 45 57
-2.576085 -0.979396 24.129322 56 40 42
-2.580376 -0.780858 24.131731 55 35 37
-2.582372 -0.509901 24.127312 52 33 36
-2.589526 0.213247 24.223211 47 30 29
-2.400979 1.598432 22.480330 29 29 35
-2.378670 1.860974 22.185553 98 86 71
-2.175157 2.690353 20.358162 143 120 85
-2.110508 2.939737 19.838228 218 192 163
-2.201588 -6.569109 20.725550 238 215 181
-2.201534 -5.961465 20.691000 240 217 183
-2.499442 -5.477922 23.581324 121 94 64
-2.634451 -5.148375 24.825377 153 136 109
-2.584956 -3.841261 24.329716 131 109 77
-2.597294 -3.633832 24.480993 141 124 97
-2.600641 -3.571936 24.472383 135 115 91
-2.609535 -3.296348 24.444561 136 119 94
-2.595323 -2.708043 24.438898 156 140 131
-2.582628 -1.774107 24.227953 36 42 58
-2.578549 -1.706763 24.203669 56 41 47
-2.571254 -1.270790 24.152330 30 28 39
-2.566626 -1.162696 24.181749 43 38 45
-2.575487 -0.341133 24.191137 44 32 36
-2.569788 -0.269468 24.240814 45 32 31
-2.579272 -0.225617 24.251959 44 31 30
-2.580234 -0.067146 24.247746 56 36 33
-2.235102 2.431128 21.042814 188 159 117
-2.176272 2.605070 20.507141 168 141 94
-2.115814 2.805886 19.932247 174 151 146
-2.067395 -6.823575 19.603603 185 184 164
-2.139407 -6.031888 20.251570 242 222 188
-2.349273 -5.665069 22.208691 150 123 88
-2.352226 -5.532043 22.244423 132 104 64
-2.451630 -5.696202 23.201859 121 95 60
-2.610382 -5.003770 24.703140 153 128 94
-2.572982 -3.811532 24.388910 156 135 106
-2.581483 -3.182226 24.484360 134 110 84
-2.574731 -2.993041 24.385870 129 109 85
-2.581985 -2.785439 24.429251 145 129 105
-2.563333 -1.951856 24.254005 54 39 42
-2.558008 -1.073588 24.143318 49 36 42
-2.564229 0.077789 24.276257 49 31 27
-2.563952 0.133344 24.252892 44 31 25
-2.378358 1.777067 22.578722 150 150 158
-2.232635 2.341358 21.142590 162 135 94
-2.230930 2.357640 21.143259 179 153 106
-2.090397 3.032519 19.759895 247 225 188
-2.079475 -6.571207 19.765427 205 186 135
-2.131041 -6.523865 20.299049 228 204 170
-2.139477 -6.295295 20.351652 204 184 130
-2.329260 -6.063529 22.170605 233 210 178
-2.323940 -5.919230 22.094313 231 208 173
-2.323210 -5.862790 22.102488 226 207 173
-2.491609 -5.042082 23.662518 120 91 55
-2.581844 -4.751601 24.582565 143 113 72
-2.573723 -4.017639 24.407457 116 93 69
-2.537255 -2.184879 24.174500 50 37 24
-2.539908 -0.340684 24.209055 34 27 34
-2.551188 -0.282864 24.247343 37 28 30
-2.551042 -0.224338 24.276445 34 28 28
-2.534566 0.676473 24.122066 48 32 29
-2.533263 1.597202 24.106340 36 27 25
-2.118136 -7.477360 20.308073 252 252 252
-2.110205 -6.543737 20.124519 222 202 161
-2.470537 -5.261812 23.671755 106 79 52
-2.572274 -4.869319 24.667734 131 102 58
-2.560996 -4.571082 24.495855 115 94 65
-2.556268 -2.517770 24.385086 136 128 118
-2.533295 -1.843590 24.297457 44 36 46
-2.523094 -0.938951 24.144821 39 27 32
-2.525499 -0.576112 24.143442 39 26 26
-2.527585 -0.475490 24.148991 39 27 26
-2.542308 -0.024448 24.298845 51 32 28
-2.526305 0.272103 24.282787 55 34 33
-2.517384 0.736503 24.116993 49 30 23
-2.489570 1.354111 23.935013 42 32 28
-2.361563 1.604229 22.591974 29 30 34
-2.266973 1.967017 21.756706 115 115 103
-2.259289 2.143759 21.648525 241 215 161
-2.148988 2.550591 20.586273 250 232 199
-2.073404 2.827795 19.883883 142 117 96
-2.152085 -6.544363 20.691536 229 207 170
-2.290332 -6.231601 22.069740 242 222 186
-2.448650 -5.349112 23.573153 112 83 51
-2.553430 -3.621236 24.505737 125 102 77
-2.543342 -3.397960 24.476080 141 121 100
-2.519679 -2.905052 24.262093 131 113 88
-2.520447 -2.378101 24.274622 140 134 124
-2.533227 -2.102270 24.402988 47 46 59
-2.522218 -1.755733 24.329363 35 36 50
-2.511291 -0.681265 24.128311 38 28 27
-2.504624 -0.647048 24.144928 39 28 27
-2.522031 0.161477 24.265142 51 34 30
-2.502652 0.427135 24.205164 50 31 26
-2.516260 0.454380 24.215132 51 32 28
-2.502523 0.907591 24.121239 46 28 28
-2.505269 1.041138 24.136868 25 24 22
-2.503539 1.551486 24.023695 40 29 26
-2.343256 1.674532 22.572371 33 28 31
-2.246712 2.049548 21.701893 222 197 183
-2.126631 2.652526 20.512699 217 188 144
-2.060085 2.913933 19.837410 197 175 139
-2.093641 -6.534979 20.342251 222 200 161
-2.111055 -6.450135 20.487976 230 212 178
-2.090993 -6.101708 20.238293 200 177 134
-2.275822 -6.132959 22.090261 234 213 178
-2.281492 -6.007584 22.103172 238 216 179
-2.556043 -4.802939 24.632477 126 98 58
-2.520646 -4.172116 24.386734 143 123 91
-2.521852 -3.109425 24.441256 124 107 74
-2.513627 -2.484605 24.309954 116 108 99
-2.508383 -1.650834 24.303755 48 39 52
-2.492984 -0.350104 24.213966 27 22 24
-2.508412 0.117915 24.274221 58 38 34
-2.515788 0.221176 24.270239 56 34 31
-2.489206 0.586840 24.129074 52 34 27
-2.495968 1.205848 24.105017 47 31 28
-2.061883 2.849117 19.866621 207 181 150
-1.982917 -6.618484 19.408861 154 154 108
-2.004496 -6.587331 19.594797 142 147 87
-2.269791 -5.738158 22.118450 198 180 134
-2.367761 -5.553889 23.066130 133 104 72
-2.382104 -5.470577 23.196907 104 82 47
-2.428811 -5.310762 23.615307 94 69 39
-2.516318 -3.437359 24.464510 135 117 93
-2.496050 -1.592120 24.303865 50 44 54
-2.490878 -1.413512 24.218248 53 42 47
-2.493123 -0.138215 24.339670 42 31 28
-2.481980 0.411705 24.198339 51 32 26
-2.473254 0.783726 24.095222 53 36 29
-2.477612 0.919087 24.161875 44 28 28
-2.469799 1.606892 24.053312 31 27 28
-2.165513 2.366696 21.068169 210 181 135
-2.164174 2.396969 21.045256 199 174 127
-2.100978 2.547246 20.541374 217 195 177
-2.093874 -5.981926 20.474136 236 214 167
-2.269665 -5.924517 22.136992 235 215 180
-2.418646 -5.224988 23.632658 114 90 62
-2.499313 -4.448665 24.451889 132 107 77
-2.494869 -3.951251 24.388641 149 132 106
-2.471326 -2.846819 24.231163 119 101 77
-2.499804 -2.591609 24.393698 107 103 94
-2.480620 -2.363197 24.233780 85 78 68
-2.487621 -1.620392 24.329388 52 45 53
-2.473434 -1.259289 24.226763 30 21 22
-2.467685 -1.198318 24.225048 27 24 26
-2.475693 -1.130133 24.196299 28 20 19
-2.471986 -1.054881 24.171457 35 28 25
-2.473578 0.330215 24.257141 51 32 27
-2.210860 2.106166 21.624943 193 170 124
-2.084429 2.614185 20.483351 179 156 116
-2.026951 -7.198553 19.992151 236 236 234
-1.991382 -7.007441 19.694862 237 236 230
-1.974227 -6.755109 19.518236 153 159 122
-1.961605 -6.595562 19.366999 148 154 102
-2.060951 -6.166002 20.299612 163 148 80
-2.063804 -6.016232 20.319719 183 168 90
-2.074615 -5.928608 20.453619 229 210 177
-2.248382 -6.010831 22.117460 245 224 188
-2.344961 -5.513038 23.061357 131 103 66
-2.496719 -4.741568 24.630844 142 116 78
-2.475044 -3.890755 24.427114 143 122 101
-2.476133 -3.764108 24.396757 129 106 84
-2.479551 -3.729706 24.398802 153 127 98
-2.480528 -3.701753 24.427429 148 122 93
-2.485817 -3.428027 24.487486 145 128 101
-2.484066 -3.294809 24.473520 133 115 93
-2.478330 -2.739338 24.381943 129 112 99
-2.458494 -1.296009 24.184278 41 37 44
-2.453051 -0.493287 24.208775 37 37 35
-2.463834 -0.229210 24.276236 40 41 40
-2.476542 0.007410 24.323694 52 33 32
-2.471262 0.404413 24.223047 54 35 29
-2.448014 1.610741 24.143705 35 29 29
-2.315131 1.824504 22.769733 141 137 148
-2.194839 1.903815 21.650976 75 64 58
-2.013264 -7.319565 20.057428 247 247 245
-1.975371 -6.898983 19.631512 226 227 224
-2.044505 -6.139046 20.293425 231 202 139
-2.245073 -5.811453 22.210739 239 220 180
-2.338050 -5.435877 23.246857 107 82 52
-2.365596 -5.318109 23.429647 123 98 67
-2.384871 -5.092785 23.607578 124 98 71
-2.472977 -4.534572 24.469793 139 118 91
-2.470362 -3.622972 24.491039 131 113 85
-2.433739 -0.629390 24.179535 43 41 40
-2.432400 0.989934 24.108625 30 26 27
-2.426985 1.443362 24.087702 39 29 27
-2.431068 1.564400 24.082514 37 25 24
-2.307412 1.777283 22.922274 188 184 159
-2.189016 1.968193 21.658701 175 176 164
-1.944458 -6.556669 19.425852 193 175 128
-2.329437 -5.398718 23.309492 107 84 53
-2.333811 -5.368656 23.353123 98 75 44
-2.470621 -4.948510 24.587435 154 129 89
-2.474424 -4.859468 24.644421 138 109 66
-2.429015 -2.337215 24.247120 148 133 125
-2.421354 -2.147003 24.194799 48 30 28
-2.440197 -1.687683 24.343090 36 39 57
-2.440618 -1.103312 24.243805 47 43 41
-2.433083 0.624828 24.158932 51 34 23
-2.414992 1.514961 24.063801 40 29 28
-2.170796 1.872259 21.696709 92 79 71
-2.114662 2.345982 21.094660 215 188 142
-1.993745 2.795582 19.859169 208 188 180
-1.953640 -6.563003 19.632832 185 180 122
-1.979739 -6.610566 19.944118 173 161 103
-2.040655 -6.131255 20.439400 134 119 73
-2.440809 -4.293187 24.441586 133 110 78
-2.443968 -4.233484 24.450703 140 118 90
-2.438570 -4.093754 24.419119 131 107 78
-2.439791 -3.577190 24.466311 132 116 93
-2.438816 -3.017982 24.350225 137 112 84
-2.431025 -2.605098 24.362143 133 126 121
-2.420704 -1.591532 24.300703 45 43 55
-2.391010 1.352214 24.038172 42 31 24
-2.308636 1.666486 23.193172 31 31 36
-2.163693 2.036194 21.661713 198 177 171
-2.150548 2.145063 21.617220 183 154 112
-1.899207 -6.574670 19.218582 218 198 175
-2.008225 -6.551110 20.239513 237 217 180
-2.175203 -6.056248 21.952662 245 222 188
-2.013280 -4.979051 20.435556 121 95 60
-2.328841 -5.144071 23.544249 105 81 53
-2.421829 -3.811669 24.453861 158 136 99
-2.424200 -3.178864 24.408197 136 116 90
-2.427644 -2.046790 24.485662 42 39 46
-2.435204 -1.949699 24.460283 32 33 46
-2.430909 -1.844119 24.467752 36 42 60
-2.421634 -1.792058 24.469124 38 47 68
-2.403388 -1.204312 24.267525 43 44 48
-2.398151 -0.361231 24.176300 36 36 41
-2.396004 -0.240124 24.218281 37 38 39
-2.397895 0.430530 24.197857 53 34 27
-2.391076 0.933249 24.125776 38 34 32
-2.405501 1.014519 24.151028 27 26 27
-2.389218 1.076596 24.129715 40 35 31
-2.307819 1.727155 23.272221 26 26 28
-2.027257 2.609200 20.431881 211 187 140
-1.962744 2.871150 19.835920 227 205 160
-2.015630 -6.560571 20.488840 234 210 172
-2.185321 -5.573494 22.150059 123 96 57
-2.319865 -5.201447 23.526134 112 86 59
-2.314972 -4.957827 23.537247 109 85 49
-2.414279 -4.847259 24.612776 135 105 62
-2.412437 -4.392991 24.467548 150 127 92
-2.411533 -3.970861 24.481482 139 116 85
-2.411149 -3.886175 24.419226 139 116 85
-2.389406 -0.140227 24.214848 21 22 25
-2.378670 0.540843 24.203447 52 33 25
-2.369085 1.222694 24.125175 39 29 25
-2.320667 1.643718 23.524506 30 31 35
-2.136364 1.954999 21.730776 101 97 86
-2.076019 2.302320 21.135845 230 209 195
-2.071553 2.348983 21.065378 202 178 133
-2.022059 2.526900 20.539610 189 172 168
-2.011881 2.578889 20.458618 191 162 128
-2.010487 2.652434 20.413609 240 212 166
-1.945202 2.963190 19.794489 198 172 148
-1.859973 -6.784013 19.086060 225 231 228
-1.869369 -6.623279 19.131504 202 207 179
-2.016253 -6.306335 20.602705 189 193 113
-2.244003 -5.532398 22.883261 132 103 69
-2.297274 -5.294324 23.497902 121 95 58
-2.415854 -4.801009 24.636389 147 120 76
-2.389401 -2.606438 24.352657 84 79 71
-2.387333 -1.732996 24.415020 45 42 54
-2.382680 -1.625471 24.334402 40 37 50
-2.369777 -0.598074 24.254425 31 31 36
-2.374404 -0.569240 24.261740 29 29 33
-2.372851 -0.464423 24.226963 28 28 31
-2.372807 -0.447426 24.242680 25 25 29
-2.370020 -0.410795 24.257389 30 30 33
-1.957772 -6.607430 20.156420 165 139 87
-2.159149 -5.890007 22.191816 245 225 190
-2.155663 -5.844506 22.222548 240 220 187
-2.249969 -5.508623 23.110518 132 103 68
-2.384724 -4.559628 24.566162 143 122 93
-2.373646 -3.783571 24.397539 138 117 88
-2.355588 -2.376224 24.240271 126 119 111
-2.380614 -2.059155 24.513832 55 46 59
-2.359593 -1.326895 24.227079 33 35 40
-2.364273 -1.093744 24.273102 40 36 37
-2.358897 -0.962318 24.273829 34 34 36
-2.365590 -0.778785 24.248449 33 32 37
-2.361671 -0.081453 24.193647 28 27 25
-2.341221 0.069524 24.127872 33 22 23
-2.362255 0.546453 24.214384 51 33 27
-2.352134 0.782430 24.194201 36 28 25
-2.351309 0.818981 24.146313 27 27 23
-2.349970 1.269643 24.125383 37 28 29
-2.102766 2.149252 21.648743 207 176 132
-2.095863 2.186998 21.581032 178 146 108
-2.041522 2.411716 21.001772 190 158 123
-1.971727 2.698211 20.311157 169 146 103
-1.926960 2.923544 19.784866 190 164 131
-1.996194 -6.539181 20.688360 242 217 158
-2.241467 -5.411677 23.182026 103 78 47
-2.249896 -5.389893 23.243870 112 88 54
-2.279053 -5.157348 23.540905 106 84 57
-2.276351 -5.102840 23.549553 118 94 68
-2.274153 -5.066307 23.572088 119 94 64
-2.321952 -4.891913 23.946482 149 130 103
-2.369789 -4.504014 24.544939 150 129 98
-2.355579 -4.118536 24.417814 147 125 99
-2.353812 -3.607868 24.369400 148 125 103
-2.348677 -3.450801 24.356205 146 126 103
-2.350681 -3.109445 24.336039 132 115 87
-2.335338 -2.277528 24.183794 91 80 84
-2.363010 -1.942491 24.455530 38 31 41
-2.356968 -1.687366 24.366835 43 32 41
-2.349912 -1.541799 24.314611 20 20 17
-2.342209 -0.362960 24.265070 38 38 40
-2.329033 1.325308 24.031904 31 27 29
-2.317898 1.507832 24.001015 35 25 23
-1.909505 3.059118 19.743334 244 221 182
-1.976326 -5.821586 20.586483 225 204 168
-2.133162 -5.679829 22.224358 232 213 172
-2.241931 -5.363379 23.352217 114 89 59
-2.347611 -3.842199 24.427212 139 117 96
-2.331473 -3.289085 24.335939 121 107 88
-2.343117 -1.422264 24.310511 31 28 27
-2.322965 0.654763 24.200401 50 33 28
-2.323241 1.065266 24.166338 25 25 27
-2.308164 1.379705 24.033592 41 30 26
-2.094908 1.900224 21.762316 84 77 67
-2.015296 2.303961 21.045433 213 189 168
-1.950705 2.696859 20.293163 186 160 114
-2.129950 -5.720171 22.270725 244 222 183
-1.951463 -4.967710 20.524509 125 99 62
-2.244973 -5.243245 23.527308 98 74 40
-2.346619 -4.577351 24.523294 134 114 81
-2.316630 -3.371961 24.319052 140 122 97
-2.346280 -2.140941 24.628504 52 43 50
-2.336831 -1.733489 24.418688 52 41 48
-2.327471 -1.229188 24.326466 43 41 41
-2.306399 -0.026705 24.179466 29 29 28
-2.302164 0.213711 24.129166 57 39 35
-2.306692 0.453594 24.197836 52 32 31
-2.313124 0.782934 24.169779 31 26 23
-2.308038 1.165470 24.173685 33 25 26
-1.949733 2.646524 20.407030 234 207 165
-1.811431 -6.694552 19.124128 151 165 158
-1.875638 -6.591136 19.789394 135 143 75
-1.924820 -6.581579 20.349348 224 206 168
-2.026448 -5.215305 21.383799 132 104 67
-2.228965 -5.138980 23.560730 111 87 63
-2.241674 -5.094660 23.583000 112 86 59
-2.239877 -4.923741 23.589003 117 88 57
-2.317299 -3.060709 24.314199 138 120 97
-2.306705 -0.289472 24.270086 26 23 24
-2.290907 0.065593 24.113955 45 35 35
-2.295024 0.860152 24.158590 28 23 20
-2.293957 0.936130 24.187891 37 33 29
-2.050075 2.157468 21.641987 222 189 145
-1.992576 2.362195 21.010357 203 175 133
-1.881991 2.974240 19.776150 136 114 84
-1.945215 -6.428542 20.718906 195 196 109
-2.219220 -4.974207 23.543867 118 94 63
-2.292000 -4.772307 24.300093 126 99 56
-2.314785 -4.696904 24.593460 129 103 68
-2.292751 -3.612500 24.366304 150 130 106
-2.308304 -1.975713 24.473871 60 50 57
-2.288719 -1.459719 24.327572 34 30 27
-2.297894 -1.344575 24.300577 36 37 43
-2.276729 0.563815 24.174166 55 36 29
-2.270723 1.331438 24.017187 31 28 24
-1.956244 2.467214 20.739149 241 225 192
-1.928195 2.547115 20.522703 251 233 207
-1.878051 2.797516 19.878490 177 158 153
-1.806324 -7.034006 19.405775 238 241 235
-1.819943 -6.671389 19.433832 168 185 142
-1.934527 -6.234546 20.693119 237 214 182
-1.931749 -6.131586 20.631264 242 218 180
-2.150771 -5.457489 22.961357 131 105 71
-2.193788 -5.325695 23.419888 126 99 67
-2.211724 -5.141134 23.549082 118 94 69
-2.206285 -5.082581 23.518040 118 94 63
-2.291407 -4.249829 24.410439 136 115 88
-2.276248 -2.595500 24.330376 88 81 75
-2.281291 -2.022924 24.394119 57 47 55
-2.282054 -1.885131 24.369257 58 51 64
-2.287265 -1.833866 24.370476 42 46 63
-2.278898 -1.544838 24.347515 38 32 39
-2.272479 -0.776138 24.310089 31 31 34
-2.273329 -0.753343 24.307840 33 33 33
-2.275906 -0.644679 24.299969 31 31 33
-2.244773 0.340428 24.076777 48 33 26
-2.266075 0.683441 24.204502 35 23 21
-2.254981 0.782560 24.189695 33 23 25
-2.259722 0.814251 24.164597 35 34 30
-2.268803 1.111587 24.228609 34 27 26
-2.257377 1.210907 24.208117 29 29 26
-2.237882 1.605226 23.937204 35 28 25
-2.233769 1.618500 23.803961 34 30 27
-1.973516 2.284595 21.112024 200 181 181
-1.851414 2.908016 19.825886 207 185 147
-1.852615 2.961428 19.787209 180 154 127
-1.827132 -6.693452 19.599468 184 179 114
-1.855671 -6.582884 19.908520 162 161 99
-1.920340 -5.954171 20.690380 249 228 190
-1.913508 -5.753174 20.496840 247 228 196
-2.062340 -5.817167 22.143459 235 218 189
-2.043503 -5.431649 21.992353 120 92 55
-2.001074 -5.206917 21.505089 131 105 68
-2.279253 -4.372689 24.520588 128 107 79
-2.269248 -4.142697 24.385544 156 133 101
-2.268591 -3.830778 24.437202 153 134 113
-2.262873 -3.528274 24.279543 145 125 103
-2.255497 -3.402488 24.289837 147 126 105
-2.257021 -2.913567 24.242496 140 122 98
-2.259072 -2.833091 24.277735 127 112 91
-2.250105 -2.380325 24.198641 122 117 111
-2.260318 -2.121481 24.265762 56 45 53
-2.265793 -1.964425 24.333233 62 52 57
-2.260311 -1.051500 24.342384 29 29 31
-2.258092 -0.976264 24.313240 34 34 36
-2.260871 -0.879363 24.272614 32 32 35
-2.267544 -0.806547 24.298431 28 27 31
-2.256710 -0.588970 24.264305 24 24 26
-2.256968 -0.497633 24.247450 31 32 32
-2.258441 -0.472980 24.234119 28 28 30
-2.243109 -0.069054 24.163551 38 36 39
-2.234810 0.072494 24.064018 33 26 24
-2.232426 0.233285 24.044664 53 36 30
-2.255622 0.909339 24.175329 32 24 22
-2.245322 1.433334 24.103149 44 30 27
-1.956337 2.368357 21.005970 176 148 104
-1.759581 -6.751843 19.059694 176 179 142
-2.155073 -5.384469 23.241190 100 76 49
-2.174831 -5.031618 23.545874 120 98 66
-2.173779 -4.952930 23.512428 114 92 61
-2.243680 -3.300699 24.290636 133 115 95
-2.239758 -2.488175 24.248476 156 151 145
-2.256922 -2.072001 24.369080 59 52 59
-2.232184 -0.149653 24.199028 34 32 32
-2.223276 0.283625 24.062727 50 33 31
-2.232486 0.332437 24.072363 48 33 27
-2.237623 0.863957 24.195110 30 24 24
-2.251036 1.096783 24.261782 38 29 28
-2.001013 2.063855 21.683762 153 131 120
-2.001859 2.112056 21.659718 195 174 131
-1.890331 2.601157 20.392218 183 150 118
-1.850196 2.744491 20.051167 232 221 194
-2.030610 -6.021640 22.121868 239 219 185
-2.238759 -3.943361 24.427982 156 139 111
-2.221766 -3.366549 24.258595 150 126 101
-2.229385 -3.077794 24.300020 144 124 98
-2.225968 -1.449182 24.253740 32 29 34
-2.218930 -1.232151 24.246527 39 37 40
-2.217084 -0.268539 24.188671 33 29 30
-2.215935 0.001531 24.111118 33 24 25
-2.219117 1.171057 24.245600 36 25 25
-2.208379 1.568289 24.095421 37 27 28
-1.974362 2.156476 21.572313 239 208 165
-1.878519 2.550100 20.517136 194 175 158
-1.858522 -6.618373 20.400255 164 168 86
-1.886033 -6.076959 20.674259 246 239 196
-2.051414 -5.672654 22.488342 180 162 121
-2.133112 -5.069969 23.480343 102 80 56
-2.137885 -4.884564 23.500010 118 95 62
-2.131812 -4.719641 23.370262 161 146 123
-2.218205 -4.734257 24.266094 127 99 59
-2.203596 -2.140338 24.138329 48 35 34
-2.206917 -1.326099 24.201609 44 44 47
-2.203462 -0.207990 24.190512 29 27 31
-2.195046 0.196477 24.059078 55 36 29
-2.203185 0.278324 24.054270 47 31 31
-2.201518 0.354551 24.087452 56 37 31
-2.202346 0.415650 24.125055 56 36 31
-2.211906 0.860251 24.170015 34 24 23
-2.210598 1.030022 24.220652 25 23 24
-2.209132 1.250409 24.198341 46 32 29
-2.193484 1.720165 23.974152 31 30 35
-1.978213 1.947193 21.717266 82 74 64
-1.807722 2.920121 19.802067 205 176 139
-1.806796 2.962674 19.773172 174 144 109
-1.860419 -6.624222 20.560957 202 188 122
-2.095177 -5.343671 23.110580 106 83 53
-2.103225 -5.310869 23.228682 119 92 62
-2.133933 -5.227183 23.470407 114 89 58
-2.221727 -4.378231 24.550438 136 115 87
-2.198935 -2.874998 24.232470 133 115 93
-2.193786 -2.377859 24.183342 150 146 141
-2.202759 -1.961274 24.372688 65 53 65
-2.208918 -1.556985 24.291939 38 31 32
-2.197263 0.590758 24.196629 47 29 20
-2.203875 0.645506 24.238289 46 30 24
-2.208245 0.920156 24.218390 43 33 27
-1.743417 -7.068347 19.355906 237 239 237
-1.717485 -6.949059 19.190758 210 224 201
-1.797167 -6.603026 19.980839 148 150 74
-1.863362 -6.486790 20.773912 194 174 136
-1.986614 -5.961437 22.073792 240 220 187
-1.979699 -5.859254 22.042059 234 216 180
-1.995969 -5.724466 22.152016 247 228 196
