ply
format ascii 1.0
element vertex 1258
property float x
property float y
property float z
property uchar red
property uchar green
property uchar blue
end_header
-0.255207 -0.932988 4.776939 101 62 80
-0.263019 -0.711759 4.790437 81 45 47
-0.262081 -0.673560 4.789218 78 31 41
-0.259055 -0.548927 4.772250 86 61 56
-0.253571 0.234069 4.682173 127 75 88
-0.246974 0.380402 4.544404 118 67 82
-0.235045 0.796161 4.381886 90 50 58
-0.247088 -1.431190 4.681636 75 43 46
-0.241510 0.518695 4.518949 134 83 98
-0.237982 0.615999 4.466310 93 62 68
-0.242041 -0.749444 4.794028 55 24 22
-0.240628 -0.292711 4.723418 104 76 54
-0.237836 -0.079255 4.727490 164 149 152
-0.234604 0.139613 4.624449 79 43 45
-0.234157 0.302967 4.547981 141 88 104
-0.229833 0.567623 4.494091 133 97 109
-0.227364 0.689058 4.471831 117 66 75
-0.228996 0.713373 4.476400 117 66 75
-0.237639 -1.438385 4.681132 71 40 45
-0.235032 -1.364467 4.709427 105 63 73
-0.237264 -0.798778 4.784112 113 70 77
-0.229636 0.044314 4.620099 49 37 37
-0.219946 -1.508812 4.673774 70 40 48
-0.226660 -1.378793 4.707520 99 56 65
-0.228447 -1.339196 4.711017 95 51 68
-0.230645 -0.249822 4.720738 98 68 44
-0.225702 0.018103 4.624575 92 79 60
-0.217031 0.268232 4.548903 126 72 85
-0.217467 -1.449608 4.679303 63 32 38
-0.221957 -0.467408 4.754095 130 95 91
-0.208575 -1.474011 4.667895 62 33 38
-0.216349 -0.606936 4.775397 69 44 50
-0.210062 -0.416111 4.747286 133 110 96
-0.212568 -0.222174 4.733438 96 65 44
-0.205911 -1.547315 4.690956 107 57 66
-0.205117 -0.366549 4.740953 172 157 136
-0.204554 -0.071077 4.708365 175 170 164
-0.197386 0.060558 4.596370 67 54 45
-0.199629 0.160418 4.638318 71 36 42
-0.198864 -1.444502 4.688114 75 40 44
-0.204197 -1.065626 4.786353 112 60 73
-0.197866 -0.831844 4.785547 99 54 59
-0.196746 -0.351952 4.741395 175 162 143
-0.196943 -0.204349 4.745512 73 45 23
-0.199499 -0.157218 4.738567 100 69 41
-0.200416 -0.081941 4.722372 114 103 97
-0.185694 -1.487862 4.676970 57 28 32
-0.187936 -1.474492 4.667116 65 34 39
-0.186420 -1.376840 4.711715 94 54 65
-0.194295 -1.008599 4.781649 88 45 54
-0.194468 -0.702753 4.788770 85 44 48
-0.189531 -0.620361 4.778268 44 18 21
-0.189063 -0.575504 4.773185 114 88 75
-0.190022 -0.545016 4.767900 86 63 49
-0.191980 0.194791 4.677216 88 43 50
-0.180310 -1.593852 4.685842 111 57 70
-0.176546 -1.511122 4.678673 63 33 41
-0.182968 -1.213264 4.809432 58 31 38
-0.181096 -0.654314 4.780666 93 52 66
-0.178562 -0.407178 4.751308 221 206 187
-0.182692 -0.040847 4.665577 145 134 132
-0.180801 0.165651 4.639289 90 49 53
-0.184207 0.255227 4.692022 110 60 72
-0.172844 0.372406 4.544843 116 95 126
-0.171974 0.622117 4.470269 87 54 63
-0.172188 0.674824 4.463768 111 57 71
-0.176198 -1.599644 4.680992 85 34 43
-0.172638 -1.268050 4.706287 115 63 75
-0.179406 -0.955371 4.776872 82 40 44
-0.173628 -0.910751 4.780642 92 45 55
-0.175196 -0.822950 4.788216 114 73 77
-0.164744 0.502205 4.523811 121 80 96
-0.173195 0.591249 4.483169 70 44 53
-0.167976 -1.440445 4.698747 71 41 43
-0.173358 -1.117036 4.784434 67 27 35
-0.172522 -1.039299 4.781778 120 84 98
-0.173269 -0.821391 4.788399 106 65 69
-0.170246 -0.732043 4.796916 66 28 27
-0.158883 -1.268155 4.705653 114 62 74
-0.164452 -0.582764 4.772544 88 61 52
-0.160025 -0.524490 4.764116 100 75 55
-0.159934 -0.263607 4.733838 159 141 117
-0.154933 -1.377599 4.705640 103 57 67
-0.153703 -1.330687 4.707077 91 44 62
-0.157599 -0.769456 4.792980 61 27 26
-0.153069 -0.617804 4.775991 64 32 33
-0.149726 -0.478621 4.763901 137 114 96
-0.146731 -0.000390 4.618658 44 34 35
-0.151094 0.040702 4.592746 127 109 97
-0.150703 0.171808 4.648577 93 52 58
-0.147272 0.289108 4.552856 141 94 110
-0.144862 0.599495 4.483802 93 63 71
-0.146873 0.615029 4.484725 98 65 72
-0.148819 0.661536 4.473474 160 121 142
-0.148175 -1.063562 4.783728 138 96 110
-0.149915 -0.330237 4.741601 108 76 53
-0.135045 0.534775 4.511384 144 88 101
-0.132412 -1.442801 4.664925 67 40 45
-0.135118 -1.369146 4.707187 116 63 73
-0.140872 -0.941269 4.773995 92 52 60
-0.142106 -0.676509 4.771687 103 67 77
-0.140507 -0.458432 4.764569 188 173 152
-0.138265 -0.147691 4.716065 110 87 69
-0.133083 0.266835 4.554328 139 82 97
-0.134076 0.659821 4.466869 156 117 138
-0.129822 0.803630 4.386861 97 52 59
-0.128389 -0.572066 4.771015 134 107 90
-0.126312 -0.042700 4.638136 189 183 185
-0.128189 0.002431 4.610673 96 86 85
-0.128313 0.417981 4.544249 117 75 89
-0.128391 0.475847 4.534192 147 105 127
-0.134835 0.892195 4.699265 116 68 80
-0.121142 -1.472857 4.654770 48 27 36
-0.124813 -1.226957 4.698400 120 68 81
-0.126136 -0.388813 4.754767 147 132 109
-0.125686 -0.091809 4.664719 207 201 203
-0.128186 0.253151 4.712611 112 60 73
-0.114535 -1.266747 4.708426 127 77 89
-0.117890 -1.055738 4.783189 135 88 106
-0.117569 -0.772943 4.792175 56 24 25
-0.120744 -0.418184 4.759580 87 54 49
-0.118928 -0.293812 4.739625 92 65 46
-0.118657 -0.267418 4.741333 169 153 140
-0.116075 0.184341 4.688648 91 46 51
-0.109622 0.611502 4.470112 82 52 62
-0.108135 -1.580558 4.659202 135 81 95
-0.109549 -1.446084 4.690408 71 39 44
-0.113400 -1.117760 4.785357 66 25 29
-0.108578 -0.978119 4.780468 80 41 46
-0.108587 -0.910067 4.786736 101 52 58
-0.107648 -0.823469 4.789508 110 69 75
-0.113706 -0.258055 4.743046 108 92 79
-0.111443 -0.146563 4.717644 163 145 123
-0.102299 -1.380715 4.710329 87 51 63
-0.101938 -1.265006 4.708876 120 74 85
-0.103485 -1.017010 4.781666 124 76 88
-0.102194 -0.158882 4.717749 112 90 66
-0.099932 -0.065217 4.645819 125 116 109
-0.099600 0.498210 4.534902 124 85 106
-0.094622 0.591247 4.483927 75 52 60
-0.095986 -1.504832 4.665507 68 38 46
-0.098622 -0.710824 4.776775 69 30 33
-0.098313 -0.562595 4.768436 88 53 49
-0.092540 -0.502930 4.764606 60 29 27
-0.099209 -0.473505 4.765068 67 36 34
-0.092245 -0.089766 4.672015 171 161 159
-0.091901 0.147842 4.626813 85 44 48
-0.092159 0.371913 4.549290 134 122 160
-0.092332 0.611943 4.472528 96 66 74
-0.086446 -1.594726 4.658793 117 66 83
-0.087328 -1.475349 4.666376 56 27 31
-0.086332 -1.461330 4.677774 64 33 38
-0.090496 -0.759726 4.792437 59 25 24
-0.086224 0.160990 4.646729 84 47 55
-0.081190 -1.375285 4.711606 93 52 60
-0.078240 -1.209622 4.743996 118 72 85
-0.077818 -0.634253 4.772935 127 95 96
-0.081402 -0.356308 4.752666 196 178 154
-0.074492 -1.450062 4.691758 60 28 33
-0.072921 -0.285954 4.746685 185 172 156
-0.072583 0.028006 4.614244 84 65 58
-0.072335 0.242011 4.729215 139 87 99
-0.072963 0.661698 4.474036 164 120 143
-0.069970 -1.178315 4.783692 50 23 28
-0.067741 -1.095859 4.781549 79 49 59
-0.065683 -0.028494 4.657649 224 217 211
-0.060735 0.317720 4.557135 128 68 80
-0.060151 0.594625 4.525122 61 40 49
-0.062615 0.608895 4.494661 74 47 54
-0.058435 -1.480967 4.672928 55 26 31
-0.055272 -1.360821 4.710284 108 65 75
-0.058771 -1.264988 4.702027 124 74 86
-0.060284 -1.007750 4.777783 118 68 77
-0.060520 -0.249250 4.752757 126 103 89
-0.055724 -0.082346 4.692993 86 65 70
-0.056416 0.276935 4.552530 137 83 97
-0.065105 0.828861 5.003217 85 44 50
-0.050262 -1.509605 4.678632 67 36 44
-0.050555 0.671598 4.465555 121 70 87
-0.052396 0.709910 4.468988 118 62 73
-0.043036 -1.584928 4.652421 120 67 83
-0.044929 -1.085258 4.780672 85 54 62
-0.043743 -0.797852 4.785291 111 70 76
-0.046077 -0.282124 4.765739 157 135 124
-0.042231 0.465695 4.541321 94 53 69
-0.033212 -0.893131 4.789594 103 69 85
-0.039265 -0.730157 4.782069 62 30 31
-0.036908 -0.562265 4.766490 81 45 47
-0.039429 -0.422699 4.773935 86 45 51
-0.035377 0.016680 4.654761 157 143 140
-0.033404 0.238738 4.728416 140 88 100
-0.022301 -1.598314 4.653099 87 45 59
-0.032034 -0.691163 4.775846 71 35 35
-0.028268 -0.623069 4.772829 79 44 50
-0.025209 0.163659 4.676173 79 49 61
-0.027568 0.206934 4.724784 108 66 78
-0.020244 -0.980250 4.779057 80 40 48
-0.024640 -0.086579 4.724150 140 122 122
-0.021899 0.553075 4.520648 109 73 87
-0.009928 -1.438146 4.646002 66 36 44
-0.015642 -1.328891 4.705388 90 48 62
-0.014742 -1.036811 4.778229 77 40 48
-0.012002 -0.905164 4.787413 78 45 56
-0.013545 0.069402 4.670140 136 120 133
-0.012873 0.306534 4.555982 145 89 102
-0.014151 0.324698 4.553109 143 77 89
-0.012857 0.383684 4.548417 148 102 115
-0.012792 0.488812 4.536380 96 57 76
-0.000687 -1.315090 4.707900 94 53 67
-0.003828 -1.164323 4.706614 51 24 29
-0.005620 0.150141 4.673260 80 40 48
-0.002131 0.241627 4.726583 147 95 108
0.003060 0.272620 4.699641 141 91 103
0.007414 -1.438650 4.649515 70 41 46
0.009151 -1.268305 4.707447 123 75 87
0.007261 -1.097413 4.739785 75 39 43
0.010950 -0.756250 4.785534 111 70 76
0.011813 -0.627984 4.776144 93 64 68
0.007344 -0.450186 4.791796 80 40 41
0.007632 0.203498 4.725032 112 71 89
0.014542 -1.365135 4.709157 105 64 78
0.014296 0.386050 4.549791 104 68 82
0.024832 -1.440841 4.656444 64 33 38
0.018719 -0.938066 4.775609 90 44 55
0.024350 -0.901596 4.779499 116 70 83
0.026850 0.000901 4.686578 90 76 67
0.027284 -1.502795 4.656519 72 41 49
0.032078 -0.686609 4.778806 79 40 45
0.031584 -0.597502 4.775350 91 59 62
0.029604 -0.440051 4.789157 88 43 46
0.031283 0.302752 4.575530 150 96 112
0.034322 -1.459455 4.653392 63 34 39
0.032892 -1.106870 4.702137 59 28 33
0.028772 0.755296 3.483911 103 75 98
0.047745 -0.380655 4.772809 93 47 49
0.057116 -0.908167 4.709144 86 63 79
0.053380 -0.424013 4.780943 85 44 42
0.050334 -0.277569 4.765778 90 44 44
0.054618 0.178083 4.722239 89 51 66
0.050035 0.267341 4.728761 161 104 119
0.056732 -1.624634 4.664197 78 37 43
0.054984 -1.537934 4.653507 108 56 68
0.059962 -1.370625 4.715111 99 57 71
0.054987 -1.272827 4.706584 113 66 74
0.060751 -0.807800 4.773960 80 44 54
0.060465 -0.709685 4.777408 56 21 25
0.069637 -1.432984 4.688271 72 38 39
0.066413 -1.346621 4.712558 113 67 80
0.069584 -0.995795 4.706317 76 31 38
0.067269 -0.419019 4.777905 91 47 46
0.065875 -0.303100 4.766962 94 48 48
0.064393 0.063080 4.700776 135 121 118
0.063327 0.150653 4.693900 113 62 71
0.064845 0.324856 4.558856 143 82 97
0.064415 0.388469 4.550593 108 75 92
0.071402 -1.044902 4.692380 73 41 46
0.075013 -0.598462 4.773964 89 54 60
0.073889 0.042528 4.706256 178 163 158
0.075713 -1.589790 4.656971 76 39 47
0.077088 -1.501119 4.653128 59 28 36
0.082869 -1.359117 4.714613 109 66 76
0.078504 -1.267656 4.699282 113 66 76
0.085433 -0.075060 4.739103 125 74 81
0.082182 0.277796 4.711327 153 96 111
0.086122 -1.431988 4.631648 66 37 41
0.093197 -0.765543 4.777620 103 57 67
0.086564 -0.639978 4.775000 112 69 76
0.089027 -0.549068 4.767896 58 28 30
0.084552 0.307745 4.564141 150 93 110
0.093370 -1.183252 4.688199 94 61 72
0.097853 -0.919248 4.684440 95 52 61
0.094419 -0.826512 4.761694 81 38 45
0.096110 -0.492731 4.765991 96 51 54
0.095831 0.094099 4.697194 135 84 91
0.102413 0.114662 4.696030 89 44 51
0.098797 0.346469 4.554159 162 113 134
0.102061 0.398861 4.548642 109 74 94
0.106726 -1.361831 4.715250 119 67 79
0.109921 -1.319040 4.716554 105 67 88
0.108723 -1.162735 4.691351 59 17 27
0.113675 -0.400118 4.767544 100 53 61
0.113845 -0.094461 4.744232 108 60 76
0.121587 -0.548584 4.762827 55 23 26
0.117558 -0.120541 4.757398 120 71 90
0.120287 0.191752 4.733738 118 70 82
0.119593 0.245548 4.731482 156 102 115
0.109698 0.634851 4.477264 61 87 124
0.121873 -1.429414 4.619826 68 36 47
0.126846 -0.959788 4.682620 110 67 76
0.119465 -0.939814 4.680567 84 44 52
0.124540 -0.914710 4.674914 67 31 35
0.123255 -0.467762 4.766826 114 71 81
0.127711 -0.243323 4.761763 72 26 36
0.126848 0.059154 4.714922 84 34 43
0.121320 0.590643 4.500566 83 60 68
0.132186 -1.583649 4.611300 59 27 32
0.128648 -1.330951 4.717218 95 53 67
0.126398 -1.085954 4.689236 39 10 14
0.127011 -1.054825 4.684773 68 38 40
0.130959 -0.675351 4.763475 98 47 54
0.131122 -0.561549 4.759547 58 30 29
0.130742 -0.495369 4.765502 78 39 42
0.134967 0.146082 4.723224 93 62 77
0.131620 0.280004 4.717855 147 93 109
0.126975 0.375930 4.556313 108 67 83
0.137919 -1.156093 4.688195 104 56 70
0.138371 -1.120152 4.688931 120 77 94
0.143396 -0.440523 4.766718 91 54 62
0.135249 0.411955 4.556370 99 68 83
0.141205 -1.017072 4.686172 118 72 82
0.146440 -0.993715 4.682800 134 88 98
0.140849 -0.644128 4.764526 102 52 61
0.152497 -0.336330 4.761274 84 43 57
0.148450 0.011456 4.724631 123 85 100
0.147125 0.186577 4.738245 138 81 96
0.137380 0.484504 4.545597 98 57 73
0.142451 0.522035 4.535194 120 77 94
0.151538 -1.494314 4.636824 64 37 44
0.156204 -1.441157 4.678368 64 27 35
0.151181 -1.123331 4.687639 117 76 92
0.153489 -1.056146 4.682921 101 61 70
0.162753 -1.251696 4.692973 121 70 85
0.159679 -0.948152 4.674174 129 75 91
0.165276 -0.727843 4.764178 94 45 51
0.163190 -0.598200 4.759461 103 67 77
0.162290 -0.436757 4.764309 61 23 36
0.164563 -0.382373 4.763590 84 46 57
0.166285 -0.244002 4.758708 59 24 30
0.160931 -0.076655 4.745415 104 53 62
0.158387 0.446632 4.551686 137 98 117
0.152503 0.556242 4.527204 122 78 93
0.168825 -0.875526 4.668985 95 52 59
0.171419 -0.158312 4.757073 83 33 42
0.168448 0.062796 4.729731 77 31 41
0.158386 0.618649 4.478165 66 43 53
0.160891 0.706849 4.453598 120 65 71
0.125428 0.697896 3.496962 117 66 81
0.176484 -1.440167 4.711421 72 37 43
0.174481 -0.402523 4.763678 66 33 42
0.176906 -0.110260 4.754508 128 79 101
0.173564 0.148462 4.730100 66 19 29
0.166663 0.329734 4.563248 115 61 77
0.180427 -1.053770 4.679044 96 53 63
0.182333 -0.980625 4.675070 151 94 111
0.182146 -0.294460 4.761676 90 46 59
0.183722 0.008205 4.741508 77 36 52
0.189212 -1.245672 4.687071 96 54 64
0.189985 -0.729245 4.751226 92 43 49
0.195137 -0.644400 4.749395 115 65 74
0.188558 -0.280709 4.761748 124 72 84
0.185911 0.084028 4.736387 63 26 34
0.182320 0.410869 4.553560 92 71 80
0.195328 -1.459599 4.714132 66 33 42
0.202512 -0.144402 4.757131 116 73 83
0.198522 0.271887 4.736858 164 104 116
0.201095 -1.620790 4.628257 114 54 66
0.196920 -1.496915 4.640062 71 41 49
0.201432 -1.147862 4.686976 133 91 103
0.211165 -0.252266 4.757432 124 78 89
0.205808 0.162294 4.740812 116 78 91
0.195047 0.609432 4.494184 74 47 52
0.216357 -1.438475 4.706476 67 35 40
0.216289 -1.363195 4.710754 107 61 72
0.213200 -1.244149 4.686076 93 50 60
0.207613 -0.861757 4.678239 87 46 52
0.216918 -0.111616 4.754543 98 59 78
0.214385 0.012524 4.747670 111 58 74
0.209445 0.274366 4.736928 149 89 101
0.215802 -1.446388 4.706069 68 35 42
0.216486 -1.117989 4.685840 120 78 88
0.218787 -0.953684 4.674143 129 75 89
0.214704 0.296993 4.565069 156 94 107
0.214164 0.395098 4.552494 74 36 51
0.224605 -1.147564 4.685427 132 88 101
0.225120 -1.054352 4.680093 80 32 44
0.230340 -0.433345 4.765460 78 38 46
0.231488 -0.385684 4.761681 78 46 51
0.228733 -0.246395 4.758536 67 24 33
0.228209 -0.159816 4.755620 77 30 40
0.230186 0.061547 4.746089 77 35 39
0.229035 0.149631 4.741198 71 26 33
0.220267 0.309197 4.562093 150 92 107
0.221815 0.322934 4.560288 144 81 98
0.217724 0.557577 4.531124 138 90 106
0.211596 0.596897 4.500590 72 49 57
0.228976 -1.534604 4.612859 70 28 32
0.236868 -0.981891 4.672415 131 78 94
0.237868 -0.071627 4.752392 81 39 51
0.222308 0.495479 4.542596 132 91 107
0.241173 -1.361744 4.709876 123 80 90
0.242101 -0.957071 4.669985 133 76 95
0.244743 -0.728258 4.751158 94 45 51
0.245394 -1.235738 4.679749 83 37 48
0.245146 -1.053375 4.677177 96 50 61
0.242750 -0.983245 4.676982 131 78 94
0.255406 -0.658458 4.860890 139 83 94
0.245980 -0.405610 4.764616 122 75 83
0.248442 -0.333238 4.758045 94 60 76
0.254961 0.010465 4.748176 125 88 106
0.242382 0.339515 4.557846 137 80 97
0.250203 -1.573898 4.619581 81 35 46
0.258576 -0.431985 4.768257 89 43 54
0.266098 -1.448856 4.699921 60 33 42
0.264557 -1.059089 4.680612 110 67 77
0.266011 -0.487873 4.778497 92 52 61
0.266936 -0.246021 4.758826 83 41 53
0.267137 -0.032827 4.747257 102 63 81
0.254564 0.417479 4.554900 143 102 118
0.251199 0.473844 4.547040 138 98 122
0.271480 -1.426614 4.700547 67 35 40
0.272450 -1.402116 4.703909 78 39 44
0.271052 -1.131057 4.684193 91 54 62
0.268570 0.063877 4.742959 108 60 72
0.260132 0.521859 4.547671 136 87 108
0.275281 -1.493994 4.633148 60 28 33
0.278207 -1.469609 4.698143 53 26 33
0.275423 -1.309892 4.705054 93 57 69
0.278161 -1.024740 4.681570 127 75 87
0.279254 -1.006627 4.682400 88 34 48
0.283325 -0.977984 4.755571 147 90 109
0.283581 -0.548904 4.840019 65 33 36
0.279047 0.028623 4.743221 120 70 81
0.279711 0.273108 4.729126 154 94 106
0.283749 -1.485432 4.680647 54 28 29
0.286618 -1.219743 4.684518 112 69 79
0.284533 -0.881241 4.756340 93 43 52
0.284858 -0.397873 4.762108 79 36 45
0.285766 -0.287997 4.759776 106 62 75
0.286042 -0.094654 4.748657 94 47 57
0.289047 0.184728 4.738890 112 60 72
0.272384 0.593097 4.546670 88 55 64
0.293474 -1.355298 4.708237 83 42 50
0.292426 -1.255716 4.686876 116 73 82
0.288447 -1.058038 4.674562 79 36 46
0.283497 0.315661 4.568585 151 88 107
0.296400 -1.469833 4.679937 72 37 43
0.297523 -1.103742 4.677457 131 93 104
0.301766 -0.803209 4.781873 123 67 78
0.310278 -0.717918 4.855015 129 71 83
0.310200 -0.550010 4.856466 74 39 43
0.306719 -0.498377 4.792877 107 60 68
0.286989 0.397825 4.562399 87 50 67
0.289673 0.498385 4.550212 125 83 105
0.309905 -1.412609 4.698468 55 29 32
0.302666 -1.253319 4.686048 59 22 29
0.310294 -0.942116 4.757296 129 77 89
0.307021 -1.578336 4.645281 130 74 87
0.314612 -1.459316 4.671130 66 34 39
0.311550 -1.281745 4.696175 85 53 64
0.313217 0.147744 4.739646 133 73 85
0.321373 -1.189438 4.700481 145 103 115
0.320863 -1.157069 4.695349 102 64 77
0.328330 -0.849384 4.766212 110 59 68
0.329443 -0.659824 4.874134 121 64 73
0.321534 -1.495310 4.636208 66 29 37
0.327909 0.018743 4.747833 123 65 77
0.317924 0.597916 4.572928 96 60 70
0.349065 -0.619949 4.903464 79 41 52
0.338839 0.231393 4.720119 132 75 90
0.342018 -1.637331 4.657369 69 19 31
0.355526 -0.869707 4.754539 79 36 45
0.366638 -0.658333 4.898924 114 64 75
0.364042 -0.563247 4.912948 64 37 46
0.366530 -0.379800 4.913543 100 52 64
0.341976 0.324231 4.562293 146 87 105
0.370525 -0.480256 4.923614 105 68 86
0.373076 -0.272622 4.901563 113 70 89
0.349754 0.339089 4.562570 148 91 108
0.369204 -1.159428 4.803714 38 19 23
0.369920 -0.994075 4.797616 71 36 43
0.377511 -0.724775 4.890325 98 58 69
0.380607 -0.590390 4.904114 62 32 44
0.378299 -0.242428 4.905119 134 76 90
0.382285 0.869353 4.944130 90 45 50
0.361418 0.580814 4.523093 128 77 92
0.398684 -0.438326 4.913801 116 72 85
0.396723 -0.120323 4.889858 116 63 79
0.392620 -0.057993 4.890953 71 21 33
0.396470 0.112516 4.904311 68 31 39
0.369765 0.413081 4.555157 110 69 87
0.369896 0.486148 4.548648 83 40 57
0.369433 0.518031 4.548903 123 75 91
0.380078 -1.577456 4.646484 113 56 65
0.401837 -0.745898 4.884095 107 67 78
0.405704 -0.498375 4.914582 98 66 89
0.403780 -0.362524 4.902095 85 48 56
0.404277 0.069954 4.887240 111 68 85
0.367533 0.672375 4.487443 122 70 92
0.292401 0.707463 3.495267 106 78 101
0.406072 -1.245184 4.808572 87 44 54
0.381597 0.377993 4.563246 91 50 66
0.379969 0.587178 4.531592 111 63 75
0.286540 0.602486 3.476655 95 50 55
0.290282 0.680958 3.492051 101 72 90
0.583582 1.811896 6.978600 112 82 106
0.395782 -1.510922 4.618670 102 62 70
0.420927 -0.703157 4.891148 99 59 67
0.295077 0.707218 3.495279 106 78 101
0.405214 -1.604441 4.633904 124 97 116
0.420253 -1.112256 4.816613 72 32 40
0.412842 -0.935636 4.767742 80 49 57
0.421195 -0.341101 4.895408 69 31 42
0.423478 -0.307970 4.892978 85 42 52
0.419459 -0.106809 4.878749 128 72 83
0.422729 0.065009 4.877755 111 66 86
0.427122 0.113120 4.882216 86 44 54
0.396897 0.325620 4.577489 103 50 66
0.396146 0.442366 4.561932 139 85 101
0.434490 -0.424382 4.899111 107 72 96
0.434473 -0.225497 4.887332 103 59 74
0.433265 0.010972 4.877382 95 58 75
0.430381 0.145576 4.880980 86 44 56
0.396388 0.659963 4.452563 152 108 135
0.416964 -1.622956 4.635072 122 98 120
0.437724 -1.179054 4.822736 80 44 56
0.434489 -1.073230 4.805893 75 38 45
0.434501 0.055541 4.879045 113 71 91
0.409583 0.409318 4.563792 97 63 79
0.408045 0.484443 4.557031 76 35 49
0.408638 0.601875 4.523576 118 70 82
0.418039 -1.578733 4.636287 148 110 131
0.420360 -1.534849 4.632698 133 95 106
0.450663 -0.834225 4.893905 73 40 51
0.449504 -0.638370 4.889472 65 23 37
0.447352 -0.568398 4.894301 89 54 76
0.451121 -0.791142 4.890626 100 59 73
0.455726 -0.366086 4.890526 133 78 97
0.414528 0.662951 4.466119 161 118 145
0.465156 -0.437776 4.890822 75 43 56
0.329809 0.715142 3.505270 101 76 98
0.491373 -1.378733 5.036657 89 53 65
0.467883 -1.001701 4.880959 85 44 52
0.441285 0.270748 4.622848 150 87 104
0.441430 0.340300 4.571308 130 79 98
0.438208 0.473458 4.554534 73 32 48
0.337221 0.692216 3.508640 104 72 95
0.668843 1.738054 7.010375 100 67 88
0.479443 -0.910249 4.889724 72 32 40
0.478919 -0.453342 4.888340 122 72 83
0.478410 -0.082963 4.861483 72 29 38
0.477446 0.035606 4.865128 102 61 65
0.476244 0.127811 4.870702 84 39 59
0.471537 0.206989 4.860811 141 81 91
0.448062 0.420021 4.559886 99 67 82
0.479786 -1.540259 4.815819 86 55 61
0.498229 -1.393701 5.008003 82 55 64
0.482619 -1.228706 4.845883 111 79 92
0.486079 -0.334014 4.886957 126 78 92
0.487651 -0.280822 4.883679 92 51 67
0.485560 -0.133516 4.864295 92 44 56
0.482565 0.236460 4.847021 145 88 103
0.477763 -1.552663 4.775213 43 23 25
0.502001 -1.398423 5.003553 74 46 58
0.455469 0.587726 4.526223 115 67 81
0.496891 -0.965794 4.863366 84 41 48
0.499978 -0.327120 4.884309 137 84 100
0.497571 -0.051889 4.857629 90 45 52
0.493383 0.219146 4.855394 137 79 91
0.478823 -1.631247 4.622347 117 95 116
0.491554 -1.580269 4.738099 106 78 93
0.512778 -0.610172 4.891001 101 64 72
0.500274 0.236472 4.847018 141 84 99
0.472239 0.403526 4.556493 78 46 59
0.473382 0.482768 4.550029 63 30 39
0.532933 -1.401856 4.997863 69 49 58
0.511047 -1.183262 4.835186 125 102 122
0.511635 -1.151792 4.835170 100 75 96
0.514116 -0.164997 4.863891 95 43 56
0.480600 0.386252 4.557236 70 43 52
0.516562 -1.468501 4.817443 59 27 32
0.515843 -1.453759 4.820749 54 24 26
0.533838 -1.319692 4.996502 117 85 100
0.514915 -1.193937 4.834592 107 84 102
0.515413 -1.125758 4.834288 121 87 111
0.520268 -0.881429 4.867693 83 50 59
0.521877 -0.084890 4.861001 108 61 67
0.521929 0.165739 4.864045 110 57 73
0.490837 0.288058 4.586799 162 108 122
0.484398 0.555160 4.535018 138 90 106
0.527252 -0.785357 4.865068 119 78 92
0.530711 -0.739291 4.868356 120 79 93
0.527630 -0.399998 4.879259 109 66 73
0.529527 -0.351810 4.879905 94 51 68
0.529862 -0.276663 4.878102 78 38 47
0.531550 0.075272 4.866506 64 22 34
0.529268 0.157035 4.863250 121 72 91
0.496946 0.329075 4.567336 95 47 61
0.492968 0.381439 4.558730 73 40 49
0.751338 1.565943 6.965690 141 91 103
0.538020 -0.668362 4.878702 95 56 74
0.541991 -0.567884 4.887252 117 67 76
0.533929 -0.168632 4.860406 136 82 96
0.388940 0.693446 3.517020 102 59 76
0.766630 1.536091 6.974313 124 72 85
0.536345 -1.140394 4.820896 120 95 117
0.541861 -0.989305 4.828414 70 37 44
0.542415 -0.887027 4.852422 78 45 52
0.541216 -0.740486 4.866383 89 55 69
0.541317 -0.734072 4.867126 98 64 78
0.542528 -0.309922 4.880051 101 55 66
0.513349 0.481434 4.554414 108 67 83
0.508844 0.521079 4.547898 91 44 60
0.550174 -1.251117 4.837486 117 86 104
0.546145 -1.067036 4.811460 85 53 64
0.546390 -0.902910 4.827209 64 29 35
0.548643 -0.641706 4.883448 77 43 57
0.551283 0.228604 4.849106 142 84 98
0.515967 0.412507 4.560670 110 69 83
0.541717 -1.573000 4.752555 111 87 100
0.580631 -1.380873 5.056421 132 107 128
0.560395 -0.486806 4.882859 125 79 90
0.559854 -0.113156 4.858709 117 65 77
0.579531 -1.316912 4.982728 107 79 94
0.565266 -0.668099 4.869397 78 38 47
0.568579 -0.544447 4.884089 80 33 43
0.567501 -0.296721 4.880823 96 49 59
0.565531 -0.239604 4.870732 130 73 90
0.564853 -0.177930 4.859684 142 88 102
0.567236 -0.017730 4.858592 74 35 36
0.567060 0.040877 4.864624 124 71 79
0.556103 -1.644127 4.728070 115 92 112
0.558446 -1.600744 4.736758 125 104 123
0.570648 -1.184879 4.805504 107 80 99
0.573048 -0.795359 4.847663 98 50 62
0.569482 -1.002463 4.813050 116 66 78
0.580727 -0.828803 4.838758 107 57 68
0.574679 -0.722814 4.848938 104 56 68
0.585140 -0.280740 4.878985 110 65 72
0.545971 0.301454 4.572146 146 83 94
0.574630 -1.645049 4.726531 119 96 116
0.618213 -1.393660 5.098850 119 97 120
0.579774 -1.099759 4.792555 84 41 51
0.591347 -0.623742 4.876702 85 52 59
0.588696 -0.371289 4.883646 70 29 43
0.586515 -0.098395 4.854214 119 68 83
0.588042 0.150594 4.859903 124 67 82
0.585123 -1.529778 4.793218 65 46 50
0.588067 -1.167792 4.798676 147 114 135
0.588641 -0.681839 4.848516 93 52 58
0.596790 -0.021729 4.863368 65 24 30
0.596378 0.073350 4.866343 77 34 44
0.584098 -1.646454 4.721350 123 99 121
0.595936 -1.487685 4.831964 158 128 156
0.617595 -1.424820 4.985811 129 106 126
0.602179 -0.924136 4.836954 79 37 47
0.600788 -0.808622 4.847741 80 40 51
0.607018 -0.166102 4.868118 150 96 110
0.601540 -1.565476 4.769205 49 28 37
0.613284 -0.615370 4.875588 69 34 41
0.607379 0.205977 4.852787 138 73 81
0.572929 0.432618 4.556624 111 83 97
0.513301 0.559636 4.105276 95 55 66
0.607247 -1.174203 4.795657 128 85 104
0.614805 -0.703010 4.843710 70 33 40
0.620772 -0.571106 4.881471 109 64 69
0.657838 -1.409681 5.102295 110 85 104
0.620700 -0.967961 4.843454 67 39 51
0.626614 -0.732434 4.835606 98 60 71
0.479304 0.683794 3.717970 131 83 99
0.612048 -1.656378 4.689220 118 96 117
0.636503 -1.464166 4.896151 90 67 87
0.635173 -0.130185 4.876503 150 98 111
0.637203 -0.054646 4.873018 116 66 77
0.591811 0.394333 4.555049 82 44 57
0.632614 -1.065032 4.790653 112 70 80
0.644683 -0.072895 4.875170 78 24 38
0.644074 0.152283 4.869989 112 80 104
0.601593 0.319223 4.563998 130 70 80
0.623720 -1.652521 4.687002 120 98 121
0.629038 -1.602356 4.721608 115 90 111
0.642130 -1.221890 4.796763 136 107 129
0.649557 -0.648854 4.848036 70 34 38
0.651385 -0.465410 4.891969 99 60 78
0.689501 -1.424995 5.100108 135 107 122
0.660565 -0.399447 4.890203 103 73 97
0.658716 0.198796 4.870045 134 70 86
0.549412 0.493840 4.091380 146 93 109
0.696898 -1.354196 5.107624 112 84 106
0.655883 -0.751434 4.806379 142 95 113
0.545841 0.612102 4.015755 129 78 93
0.650230 -1.636158 4.704727 111 89 112
0.658664 -1.544493 4.770586 108 83 104
0.667731 -0.964077 4.850456 69 28 36
0.665744 -0.779518 4.817801 120 78 98
0.672519 -0.315598 4.892555 120 66 79
0.676612 -0.278812 4.890173 86 44 54
0.632163 0.282985 4.565773 156 97 115
0.631159 0.418460 4.559112 137 101 113
0.674066 -0.903828 4.849536 73 43 51
0.683807 -0.465569 4.895673 66 36 48
0.679279 0.223860 4.869462 132 76 87
0.677495 -1.126682 4.784556 106 54 67
0.676508 -1.036017 4.820099 58 28 36
0.688938 -0.588301 4.884058 89 54 61
0.692335 -0.370471 4.887933 99 58 74
0.685835 0.037066 4.872485 101 70 85
0.565100 0.547512 4.000568 74 44 52
0.663125 -1.648862 4.681149 105 81 103
0.676243 -1.624123 4.704426 113 82 97
0.678194 -1.584333 4.726286 125 102 122
0.688087 -1.237909 4.802602 114 87 106
0.690097 -0.711454 4.826333 129 85 102
0.651770 0.328013 4.572187 111 60 77
0.685258 -1.480502 4.729765 130 97 116
0.702829 -0.809130 4.821774 128 94 118
0.694875 -0.782988 4.816957 124 84 108
0.700148 -0.090613 4.874613 122 66 77
0.533216 0.620355 3.682472 130 86 99
0.688670 -1.401398 4.740470 97 74 94
0.716379 -0.121057 4.876354 120 71 92
0.711725 0.084247 4.871014 79 43 57
0.708394 0.244714 4.863022 155 103 116
0.669464 0.293739 4.568532 148 90 105
0.665336 0.395637 4.570366 91 48 65
0.617808 0.461115 4.261653 137 94 114
0.689736 -1.652503 4.680082 138 107 122
0.688541 -1.629274 4.698882 136 104 117
0.714932 -0.891451 4.861546 109 81 96
0.711592 -0.746755 4.822252 139 110 130
0.719953 -0.523528 4.884151 94 54 63
0.720361 -0.397915 4.882006 126 73 83
0.583136 0.630357 3.956902 131 79 91
0.698780 -1.576417 4.697546 118 93 114
0.716058 -1.042506 4.808520 65 37 49
0.724508 -0.914848 4.867108 100 73 88
0.726057 -0.127630 4.877142 113 69 92
0.724114 -0.055899 4.870222 85 42 52
0.726609 0.212781 4.871474 125 65 75
0.590716 0.600790 3.976157 132 83 102
0.589669 0.608560 3.962541 134 82 95
0.713063 -1.498082 4.755714 132 100 121
0.733079 -0.976695 4.845397 81 41 52
0.727511 -0.652197 4.857866 62 27 31
0.731914 -0.545509 4.872429 85 50 56
0.736749 -0.197549 4.873608 117 74 83
0.598966 0.543489 3.987183 64 43 52
0.729085 -1.269528 4.793447 139 108 126
0.723979 -1.233915 4.787347 106 77 95
0.740515 -0.930676 4.873054 103 75 89
0.747635 -0.989304 4.852859 88 47 63
0.746047 -0.639713 4.859801 78 42 46
0.747712 -0.495145 4.864110 77 36 50
0.750921 -0.391805 4.867328 99 57 67
0.567302 0.699085 3.705463 114 76 99
0.761887 -1.429141 4.903119 75 58 76
0.793752 -1.432012 5.129980 124 105 125
0.751156 -0.725723 4.861498 131 97 114
0.753850 -0.478339 4.861330 83 45 56
0.755643 -0.456607 4.859346 83 43 52
0.757857 -0.179247 4.873660 124 66 80
0.754211 0.100220 4.863719 123 63 75
0.755477 0.144526 4.863049 72 30 42
0.710342 0.319339 4.558084 105 62 72
0.763306 -0.317347 4.868130 100 52 66
0.764240 -0.089888 4.876082 134 76 90
0.712263 0.311089 4.557309 121 65 76
0.621061 0.591080 3.977878 133 84 105
0.734564 -1.604613 4.636050 130 98 111
0.757831 -1.272225 4.787827 132 98 112
0.756355 -1.099824 4.786481 109 53 64
0.771553 -0.156034 4.872755 114 64 73
0.768681 -0.122282 4.873410 100 50 59
0.772972 0.020699 4.865206 115 64 71
0.632420 0.514239 3.999626 170 127 147
0.772101 -0.627693 4.855957 64 32 35
0.773141 -0.536503 4.849469 72 29 36
0.772065 -0.469157 4.848110 89 51 62
0.771404 -0.399910 4.849884 100 60 69
0.771640 -0.366009 4.852874 95 55 66
0.778712 -0.089012 4.871517 129 73 86
0.640854 0.584652 3.968246 142 94 116
0.788119 -1.503385 4.817400 110 88 109
0.838735 -1.434046 5.126836 129 104 125
0.783923 -1.167501 4.789347 146 109 126
0.794411 -0.702307 4.889193 145 103 125
0.790966 -0.578878 4.840880 74 33 39
0.790103 -0.440309 4.841168 85 45 54
0.786619 -0.260150 4.853444 100 57 67
0.787568 0.105845 4.855345 113 60 66
0.793066 0.172694 4.856005 119 62 71
0.789783 -1.179099 4.793094 123 86 104
0.792587 -0.460447 4.839599 82 45 52
0.795847 -0.414869 4.838680 93 50 59
0.797658 -0.375037 4.839911 92 49 58
0.799783 -0.217976 4.856743 109 59 71
0.797817 0.050047 4.857943 115 67 83
0.749420 0.375441 4.566915 104 60 75
0.662180 0.464744 4.032387 116 70 83
0.803257 -0.491102 4.834465 99 49 58
0.800002 -0.356695 4.841210 108 61 69
0.802628 -1.132981 4.794380 147 110 127
0.813684 -0.301952 4.843159 99 50 56
0.816047 -0.186027 4.850805 96 60 64
0.764868 0.324092 4.575644 102 69 80
0.663770 0.544299 3.958880 112 77 101
0.809261 -1.177250 4.776010 93 65 87
0.867175 -0.917102 5.112831 109 85 101
0.815511 -0.061747 4.863042 63 28 34
0.822555 0.136969 4.846659 88 41 51
0.828205 -0.677886 4.873697 142 113 131
0.651617 0.641105 3.821061 121 78 87
0.835768 0.199494 4.845391 130 67 76
0.682348 0.492992 3.968004 129 85 102
0.677063 0.604098 3.928151 138 85 95
0.884071 -0.996206 5.078120 146 120 133
0.841128 -0.630764 4.814325 140 101 120
0.837245 -0.535278 4.812785 86 50 62
0.835736 -0.478244 4.815434 66 31 38
0.839177 -0.428629 4.823250 93 46 54
0.838248 -0.407948 4.824956 108 55 65
0.839914 -0.236182 4.835461 103 54 60
0.844373 -0.039746 4.862829 75 41 55
0.845143 -0.373191 4.823910 92 50 60
0.850395 -0.665244 4.818482 143 116 135
0.856590 -0.300242 4.822705 78 37 45
0.857059 -0.128784 4.851752 69 29 37
0.847516 -1.220009 4.766679 116 92 114
0.911175 -0.958232 5.095048 130 105 124
0.849215 0.234882 4.786620 132 78 91
0.834442 0.292789 4.692463 154 95 113
0.734256 0.391429 4.137907 137 93 108
0.864121 -0.594489 4.800953 153 115 130
0.870636 -0.257370 4.820065 83 40 47
0.878082 -0.035767 4.868732 123 67 76
0.875148 0.025027 4.873911 127 71 82
0.712615 0.468928 3.964120 124 78 91
0.706923 0.477435 3.925003 131 85 98
0.691156 0.652108 3.834642 97 54 64
0.691276 0.712260 3.837751 94 55 74
0.871329 -0.675616 4.811849 133 106 125
0.876958 -0.478425 4.792952 142 95 115
0.893166 0.028457 4.875215 124 71 79
0.712294 0.492602 3.894867 146 107 125
0.703077 0.613424 3.847033 97 51 61
0.899653 -0.912072 4.864933 105 83 106
0.886771 -0.171048 4.823520 92 39 45
0.717006 0.585673 3.854814 132 78 91
0.896052 -1.217500 4.815503 102 84 110
0.893340 -0.532185 4.776572 145 113 134
0.889415 -0.502524 4.777111 142 111 129
0.895659 -0.561386 4.775987 135 98 115
0.896097 -0.442350 4.792124 141 108 129
0.902793 -0.364842 4.800768 92 57 77
0.900427 -0.199414 4.793865 68 29 32
0.907472 0.113531 4.860268 96 67 89
0.860495 0.406367 4.570496 91 64 73
0.724215 0.555368 3.853856 137 90 110
0.906096 -0.227943 4.795679 84 43 51
0.920745 0.006769 4.862194 75 25 34
0.732328 0.495356 3.870937 123 80 100
0.727510 0.580788 3.852654 138 82 95
0.723207 0.642473 3.828281 89 46 55
0.909994 -0.350597 4.790713 118 89 109
0.923358 -0.081265 4.851328 74 37 44
0.916300 0.159539 4.820951 99 61 72
0.988442 -1.233421 5.130166 141 116 135
0.942376 -0.832953 4.914252 128 101 120
0.916666 -0.318113 4.784537 79 47 60
0.740211 0.548138 3.843652 141 98 118
0.988401 -1.010732 5.109771 126 98 120
0.941165 -0.871053 4.855540 113 86 105
0.924187 -0.236408 4.781355 125 73 86
0.932543 -0.639267 4.763406 141 116 137
0.937848 -0.564844 4.768962 125 92 109
0.935255 -0.488531 4.772353 141 113 136
0.900734 0.378118 4.600889 93 55 66
0.753981 0.473390 3.861070 126 78 92
1.016941 -1.775561 5.147397 127 102 121
1.017020 -1.668771 5.158142 143 121 142
1.011181 -1.108340 5.113394 96 75 92
1.023828 -1.807050 5.147030 137 114 134
1.026576 -1.575352 5.154376 115 92 110
1.021974 -1.563233 5.150748 114 91 109
0.942093 -0.672917 4.752279 117 92 113
0.942914 -0.568088 4.768722 118 87 103
0.950039 0.206069 4.780015 100 49 58
0.932028 0.309771 4.695992 99 55 68
0.760119 0.498979 3.854800 123 74 96
1.028733 -1.858993 5.145522 132 114 136
1.029940 -1.836810 5.146805 126 102 124
1.027731 -1.610482 5.157700 133 109 131
0.955254 -0.610556 4.769734 109 80 98
0.951314 -0.402603 4.770417 69 40 60
0.961900 -0.116271 4.820991 94 45 49
0.969026 -0.064881 4.860174 96 50 60
1.041013 -1.704690 5.150244 133 114 136
0.959134 -0.541532 4.773035 110 79 94
0.960980 -0.167506 4.781672 71 32 37
0.950411 0.302232 4.708674 126 79 95
0.933259 0.333928 4.654875 71 38 45
1.048013 -1.649646 5.153955 122 103 122
1.044003 -1.203651 5.117917 125 106 126
1.053539 -1.579758 5.141668 130 107 127
1.052089 -1.440518 5.146949 118 95 113
1.049808 -1.336831 5.139345 132 105 122
0.996981 -0.028044 4.853591 67 30 37
0.989960 0.078941 4.827676 93 37 46
1.056971 -1.281415 5.133242 127 112 133
1.056601 -1.240811 5.126832 105 82 98
0.978358 -0.284739 4.758255 91 38 46
0.794958 0.489207 3.850503 136 81 102
0.793826 0.501114 3.847298 123 70 88
1.067035 -1.649754 5.146102 113 88 109
1.060906 -1.026659 5.110333 123 100 120
0.967384 -0.681466 4.644948 102 87 106
1.001209 -0.491934 4.796995 145 117 139
0.988505 0.239455 4.741821 136 86 97
0.981594 0.258360 4.732856 130 79 88
1.074486 -1.750483 5.149078 128 101 118
1.076504 -1.673689 5.148306 146 123 143
1.071904 -1.534290 5.138533 76 55 74
1.009125 0.022665 4.833228 109 63 76
1.085021 -1.051975 5.116375 118 90 112
1.000137 -0.428218 4.749714 120 88 109
1.000193 -0.309065 4.742936 133 79 92
1.016231 -0.122977 4.820740 66 27 28
0.808418 0.529021 3.833332 160 111 130
1.027887 -0.024585 4.834053 85 50 57
1.020642 0.052432 4.823003 97 57 68
1.015534 0.191160 4.779351 148 95 105
0.975387 0.394886 4.581132 57 24 35
1.092529 -1.001005 5.116233 132 107 126
1.012045 -0.277873 4.741542 121 70 79
1.020507 -0.435438 4.741600 128 99 119
1.022860 -0.374612 4.728917 117 57 69
1.033748 0.122696 4.803158 92 55 72
1.110749 -1.064900 5.115995 131 102 124
1.107633 -0.973485 5.114934 135 108 127
1.045691 -0.075653 4.822397 58 28 30
1.033115 -0.312524 4.723247 90 38 50
1.034564 -0.247777 4.727396 119 68 75
1.053365 -0.150278 4.802619 96 61 68
1.052434 -0.050519 4.821671 79 40 45
1.051580 -0.024116 4.819300 86 45 51
1.053874 0.024737 4.807764 87 46 54
1.054864 0.057463 4.801473 108 65 74
1.049023 0.196881 4.756020 144 93 108
1.060485 -0.171104 4.793162 69 44 48
1.062494 0.006681 4.806898 97 51 61
1.142543 -1.262074 5.115705 125 98 115
1.055027 -0.407677 4.724500 97 40 46
1.021167 0.417249 4.578996 132 99 110
1.060538 -0.367070 4.719351 154 102 115
1.065509 -0.259484 4.718110 69 30 35
1.174181 -1.796144 5.177462 137 114 134
1.165557 -1.701302 5.159599 133 110 130
1.167317 -1.509077 5.131293 128 109 131
1.169656 -1.427148 5.127218 79 56 76
1.087881 -0.476868 4.760048 136 108 131
1.094879 -0.048816 4.803234 88 46 50
1.074326 0.248335 4.730003 138 85 101
1.049273 0.326335 4.613186 126 73 83
1.191106 -1.797359 5.177516 129 105 127
1.181293 -1.619005 5.139332 124 93 109
1.097708 0.028980 4.783235 75 34 40
1.052111 0.396390 4.576515 94 54 65
1.196866 -1.824837 5.177950 137 115 136
1.186742 -1.668890 5.156222 118 93 114
1.186375 -1.587724 5.147231 124 95 115
1.175982 -1.043260 5.103896 97 73 95
1.094789 -0.212072 4.737760 55 30 34
1.097463 0.120456 4.765709 124 83 99
1.116842 -0.140314 4.799037 76 40 44
1.195443 -1.423023 5.125466 110 87 105
1.104548 -0.416619 4.717444 85 29 30
1.101235 -0.328637 4.710607 138 85 95
1.101316 -0.270646 4.717409 80 41 46
1.111482 0.172452 4.744992 90 42 56
1.218123 -1.538022 5.157052 111 84 101
1.202255 -1.273593 5.107666 104 81 99
1.209410 -1.122748 5.127795 116 84 97
1.110235 -0.315362 4.712427 142 91 100
1.124739 -0.179386 4.774658 99 63 73
1.081636 0.289418 4.587647 166 113 131
1.075966 0.345854 4.569340 155 108 126
1.220002 -1.230662 5.132635 127 103 119
1.123395 -0.219960 4.730656 71 38 47
1.083962 0.390166 4.569802 98 63 70
1.222640 -1.323452 5.114078 126 101 122
1.135329 -0.415714 4.716844 125 68 75
1.260493 -1.569255 5.177749 121 93 105
1.244135 -1.367166 5.132091 126 105 124
1.152081 -0.011316 4.777151 99 61 72
1.256977 -1.442389 5.160864 98 77 94
1.155039 -0.248511 4.728228 115 61 74
1.166601 -0.103535 4.794586 123 95 110
1.155688 0.209546 4.740658 91 52 70
1.151205 0.227388 4.736596 136 89 107
1.262090 -1.818259 5.158526 140 118 139
1.161005 -0.448232 4.729143 126 92 109
1.178975 -0.147307 4.795959 125 101 117
1.163597 0.123825 4.750723 92 63 81
1.277483 -1.516175 5.173744 100 81 100
1.271719 -1.149340 5.150445 129 101 115
1.175748 0.071167 4.757991 98 72 85
1.131533 0.325006 4.598363 107 61 72
1.275051 -1.330165 5.137746 126 106 118
1.275994 -1.212172 5.156762 125 98 117
1.264409 -0.787760 5.096657 123 98 120
1.259090 -0.738470 5.086537 88 66 87
1.196147 -0.552418 4.811862 108 77 93
1.173490 -0.276555 4.722181 122 70 82
1.179147 0.008121 4.758232 129 106 122
1.139733 0.415217 4.586123 116 72 87
1.285729 -1.739363 5.156867 114 88 101
1.289149 -1.475851 5.163988 100 81 100
1.277933 -1.319100 5.134586 109 86 106
1.183246 -0.333801 4.721474 99 44 49
1.194698 -0.142258 4.795633 111 90 107
1.142393 0.374719 4.586596 84 46 59
1.139051 0.487793 4.579583 101 55 68
1.296902 -1.705702 5.164301 115 94 113
1.300339 -1.679920 5.171047 136 112 134
1.294656 -1.584088 5.175120 120 93 110
1.293535 -1.445585 5.160225 95 76 95
1.297119 -1.169248 5.149498 132 101 116
1.199102 -0.523082 4.794228 133 108 130
1.193084 0.053796 4.752258 110 83 98
1.184720 0.241870 4.729887 115 78 95
1.213880 -0.139562 4.778547 126 101 120
1.210502 -0.125264 4.777977 128 101 118
1.199615 0.003666 4.751505 117 94 110
1.200566 0.111277 4.741912 82 58 72
1.152135 0.378320 4.577850 83 49 63
1.306929 -1.077563 5.139798 103 78 100
1.301841 -0.976086 5.103929 113 88 110
1.295816 -0.929813 5.102979 80 61 80
1.317984 -1.866007 5.143174 129 113 139
1.319910 -1.812969 5.147383 112 88 110
1.313308 -1.263367 5.147436 103 80 96
1.215487 -0.073978 4.747888 122 95 110
1.213317 -0.017449 4.744836 111 83 97
1.202424 0.269735 4.690564 143 111 134
1.163600 0.399153 4.567333 117 81 95
1.318357 -1.184310 5.146208 116 85 100
1.326464 -0.838401 5.135816 117 89 111
1.317533 -0.790181 5.118798 132 103 121
1.215196 0.166927 4.721367 109 82 101
1.176718 0.478697 4.563061 95 53 67
1.336956 -1.527659 5.160429 124 100 122
1.331349 -1.399564 5.137412 113 91 114
1.331442 -1.376293 5.138272 131 106 128
1.331758 -1.318428 5.141927 122 99 119
1.329619 -1.251894 5.145785 148 123 144
1.329372 -0.749077 5.125285 107 80 97
1.343376 -1.785418 5.155025 124 99 118
1.347972 -1.620090 5.168479 135 115 140
1.346760 -1.599057 5.166026 109 90 112
1.343791 -1.574625 5.159611 131 109 130
1.338656 -1.455940 5.148836 116 89 104
1.340432 -1.122364 5.139520 92 68 82
1.336531 -0.923185 5.132595 102 83 102
1.272823 -0.247975 4.886379 117 82 102
1.357121 -1.707545 5.172323 124 102 123
1.345475 -0.891845 5.140443 121 99 122
1.234206 -0.354581 4.719814 146 121 142
1.199002 0.376974 4.573981 75 43 56
1.356941 -1.398484 5.143153 123 104 126
1.352236 -1.028257 5.128406 130 102 124
1.350017 -0.925428 5.136450 77 59 73
1.243597 -0.425621 4.725946 106 81 100
1.245975 -0.322087 4.732453 142 102 126
1.241124 -0.289486 4.725361 128 94 110
1.375018 -1.777091 5.180892 106 82 98
1.367043 -1.619333 5.165194 102 82 109
1.364339 -1.414428 5.146157 119 101 125
1.248680 -0.381094 4.724944 86 69 85
1.383480 -1.854312 5.185497 139 117 140
1.377442 -1.534739 5.160286 91 73 95
1.371359 -1.251607 5.137533 108 81 100
1.365641 -1.200705 5.130938 122 97 116
1.367369 -1.157583 5.131149 89 69 81
1.272649 -0.528024 4.776615 76 58 74
1.261105 -0.452497 4.731633 79 54 73
1.302246 -0.197433 4.883059 140 113 130
1.387070 -1.747317 5.175430 120 89 107
1.390797 -1.698803 5.177120 94 75 97
1.313861 -0.645295 4.876636 123 91 112
1.401721 -1.476688 5.155460 122 101 118
1.400091 -1.370237 5.148812 119 97 118
1.402723 -1.314760 5.150375 134 112 133
1.392859 -1.283187 5.136976 126 101 120
1.386037 -0.857245 5.130402 117 98 118
1.407927 -1.619196 5.160834 138 113 134
1.397518 -1.144422 5.129856 122 101 116
1.396732 -0.908992 5.130700 123 110 127
1.293503 -0.480315 4.740025 117 92 113
1.314769 -0.320360 4.829361 129 105 121
1.326047 -0.262019 4.872585 106 83 99
1.422264 -1.767840 5.185812 130 106 128
1.414510 -1.641311 5.161639 113 85 107
1.403246 -0.787122 5.109448 86 68 82
1.436190 -1.779637 5.185163 126 102 124
1.416623 -1.122101 5.128419 106 89 108
1.424098 -1.174222 5.136144 129 101 116
1.424582 -0.971089 5.142198 104 75 95
1.314394 -0.446699 4.738622 115 92 112
1.312696 -0.427235 4.740163 109 84 103
1.311717 -0.300109 4.735731 121 94 111
1.350324 -0.243631 4.856109 99 75 97
1.441412 -1.708989 5.165459 91 68 86
1.432549 -1.553348 5.136354 109 84 105
1.437688 -1.483934 5.143625 135 113 134
1.431818 -1.268437 5.141689 104 80 94
1.346827 -0.036930 4.812512 105 83 96
1.456352 -1.833344 5.187861 132 109 129
1.446797 -1.007665 5.136240 104 76 99
1.324460 -0.447032 4.730480 105 80 99
1.460620 -1.855201 5.183851 125 103 124
1.452733 -1.364324 5.155466 107 92 115
1.437144 -0.815928 5.100237 121 96 117
1.429445 -0.094267 5.069517 113 92 109
1.431825 -0.072114 5.070403 106 85 100
1.379102 0.061628 4.898628 116 90 103
1.457920 -1.585391 5.137298 98 77 96
1.457010 -1.425616 5.140031 99 80 100
1.461672 -1.400373 5.156061 107 89 111
1.459774 -1.343585 5.152200 104 87 103
1.464062 -1.314842 5.153060 115 97 119
1.460993 -1.294461 5.148528 130 111 131
1.457222 -1.203277 5.129324 119 94 115
1.376991 -0.283744 4.859654 78 56 68
1.477303 -1.879607 5.191011 126 108 132
1.465030 -1.415952 5.143990 114 95 115
1.456827 -1.126799 5.118513 101 78 98
1.455140 -0.703066 5.101951 121 96 117
1.347831 -0.415267 4.715367 117 90 109
1.484494 -1.800441 5.173735 136 112 134
1.476754 -1.663812 5.153162 137 117 142
1.473066 -1.526268 5.135901 87 65 88
1.476408 -1.446829 5.140142 81 63 79
1.490390 -1.772002 5.167260 129 107 128
1.486142 -1.565618 5.142792 115 92 112
1.470497 -0.871250 5.105761 134 115 137
1.467653 -0.750372 5.076171 72 55 73
1.505630 -1.879031 5.181530 116 102 128
1.496918 -1.222316 5.148213 120 94 119
1.490816 -0.934525 5.131350 111 100 116
1.479176 -0.818897 5.091176 110 85 107
1.469069 0.425159 5.064275 128 103 122
1.310650 0.846070 4.512286 55 48 64
1.302437 1.034162 4.482947 152 113 132
1.061179 1.147468 3.669261 79 86 102
1.499103 -1.269801 5.146805 102 79 95
1.510546 -1.823284 5.166194 106 83 109
1.514748 -1.572684 5.157789 142 119 137
1.509368 -1.381787 5.156732 104 76 98
1.501101 -1.099681 5.136137 117 96 115
1.508814 -1.029722 5.139814 110 86 102
1.505469 -0.962736 5.133371 114 93 112
1.513410 -1.717386 5.146061 105 90 113
1.524181 -1.491444 5.157403 117 102 123
1.522193 -1.147524 5.146291 93 68 87
1.496466 -0.810937 5.087162 107 82 103
1.491993 0.366312 5.055863 86 68 92
1.336477 0.768452 4.527529 110 82 107
1.526700 -1.780153 5.155242 123 100 126
1.521594 -1.134161 5.143130 122 99 117
1.518061 -0.740560 5.125047 101 82 104
1.511254 -0.409463 5.095721 85 64 79
1.502269 -0.190356 5.069231 136 119 138
1.506392 0.169441 5.079819 134 108 119
1.532479 -1.280076 5.147308 108 85 101
1.501945 -0.085035 5.048275 123 92 108
1.505982 0.335861 5.050342 111 90 105
1.550178 -1.606666 5.174838 122 98 120
1.536924 -1.219922 5.146315 125 101 125
1.538327 -1.148891 5.142172 92 67 86
1.457242 0.568147 4.864392 135 107 121
1.551388 -1.823790 5.144632 127 109 135
1.542918 -1.299547 5.138995 129 110 132
1.542855 -0.934094 5.120577 118 94 108
1.541630 -0.855063 5.113452 122 99 119
1.543540 -0.593046 5.130992 119 98 117
1.539928 -0.542683 5.121821 129 107 130
1.529947 0.115975 5.084197 115 99 125
1.560023 -1.676758 5.159722 122 104 130
1.566612 -1.595898 5.170813 126 103 123
1.553363 -0.660886 5.137274 131 103 126
1.536928 -0.214936 5.076789 117 98 117
1.531499 -0.159648 5.059917 119 96 114
1.521400 -0.107214 5.049911 115 92 108
1.536419 -0.002515 5.073238 104 86 108
1.524385 0.348476 5.042001 105 92 109
1.562652 -1.182520 5.141412 114 89 108
1.561831 -1.149587 5.153351 96 73 93
1.550427 -0.853992 5.111488 126 103 123
1.538022 -0.042626 5.067324 111 84 99
1.584247 -1.536319 5.174215 98 79 101
1.569177 -1.261035 5.145378 120 102 124
1.583324 -1.657136 5.154484 112 92 119
1.582796 -1.386820 5.156069 117 95 118
1.578793 -1.308363 5.147736 84 66 88
1.576967 -1.169161 5.144474 119 96 116
1.571425 -1.066796 5.121553 115 94 113
1.579203 -0.757486 5.138683 81 60 77
1.561614 0.090976 5.078997 103 86 105
1.595580 -1.477753 5.165015 107 92 111
1.585899 -1.318212 5.148537 77 60 79
1.590989 -1.264697 5.149593 106 91 110
1.577593 -0.995955 5.111938 129 106 126
1.577226 -0.919226 5.108082 104 83 100
1.579914 -0.806725 5.133445 123 98 120
1.577065 -0.592797 5.118284 83 64 84
1.574229 -0.542163 5.110734 105 85 110
1.568838 -0.376580 5.077181 133 110 130
1.558356 -0.254055 5.070890 115 92 108
1.564069 -0.203179 5.069661 125 106 125
1.563742 -0.135269 5.059269 125 104 121
1.561476 0.167548 5.074653 132 104 118
1.555059 0.338044 5.039718 116 91 112
1.590232 -1.792521 5.130362 119 101 125
1.593925 -1.775344 5.140151 110 92 114
1.595372 -1.703121 5.141545 112 98 124
1.601205 -1.499038 5.159579 91 74 93
1.587353 -1.036973 5.119990 123 102 121
1.592651 -0.688842 5.127812 124 101 121
1.590253 -0.620280 5.119875 125 104 121
1.577207 -0.469601 5.081940 107 83 105
1.605133 -1.440204 5.160749 86 67 87
1.599205 -0.658887 5.120712 101 78 96
1.589533 -0.597897 5.115148 73 52 69
1.587659 -0.510266 5.093914 113 92 111
1.609089 -0.741241 5.128469 62 41 58
1.584300 -0.292108 5.065185 136 113 131
1.591210 -0.000231 5.067208 110 91 111
1.581756 0.308182 5.057046 66 67 124
1.624332 -1.817627 5.151531 126 108 134
1.625024 -1.728059 5.152790 93 75 99
1.620171 -1.662130 5.151108 102 88 114
1.638531 -1.140194 5.198164 104 81 97
1.598533 0.096961 5.080271 120 102 116
1.600028 0.175229 5.079695 117 91 104
1.626022 -1.808022 5.150346 113 95 121
1.632431 -0.845773 5.161066 128 105 125
1.599115 -0.205922 5.054686 92 76 89
1.598316 -0.170570 5.055786 112 87 106
1.599892 -0.145766 5.054058 118 91 110
1.641938 -1.790132 5.159361 105 85 112
1.642006 -1.694205 5.155982 128 118 143
1.638926 -1.619107 5.156297 105 89 115
1.640700 -1.540381 5.161499 89 76 94
1.641737 -0.804363 5.157407 137 112 134
1.611806 -0.446810 5.069143 102 75 94
1.614893 -0.085662 5.067619 119 93 106
1.612915 0.143913 5.074011 120 99 116
1.601470 0.496708 5.038551 129 101 115
1.650930 -1.878891 5.173899 115 105 130
1.649371 -1.748168 5.163290 101 82 104
1.652375 -1.242330 5.171783 124 102 123
1.650569 -0.952874 5.167078 100 79 98
1.634863 -0.645554 5.118305 129 98 114
1.615985 -0.346483 5.057706 98 77 96
1.612759 -0.244488 5.045963 112 91 108
1.619915 0.110825 5.068971 114 91 107
1.611678 0.333356 5.047113 53 94 199
1.652533 -1.390111 5.151785 116 92 116
1.660950 -1.210521 5.170222 123 98 119
