ply
format ascii 1.0
element vertex 1248
property float x
property float y
property float z
property uchar red
property uchar green
property uchar blue
end_header
-2.446178 -0.484152 5.075933 130 113 132
-2.381784 -0.121246 4.936321 118 99 119
-2.021602 1.033074 4.191910 46 52 48
-2.379435 -0.632660 4.956006 123 104 126
-2.421602 -0.411132 5.045132 120 104 130
-2.368084 -0.098883 4.944096 103 85 107
-1.942374 1.187189 4.060858 65 81 70
-2.435670 -0.537529 5.101928 121 103 129
-2.364381 -0.038517 4.966372 116 100 126
-1.548294 1.072298 3.253341 79 91 91
-2.364176 -0.584485 4.979687 125 102 120
-2.403595 -0.463978 5.060396 109 91 113
-2.366478 -1.442785 5.008861 99 76 86
-2.340497 -0.170758 4.951049 84 69 90
-2.349684 -0.635723 4.985872 110 87 107
-2.319616 -0.376035 4.938142 59 45 70
-2.323452 -0.262278 4.944425 117 97 124
-2.326061 -0.104223 4.947539 118 100 122
-2.317611 -0.329355 4.954881 83 66 85
-2.142730 1.025843 4.578014 108 98 106
-2.353347 -1.532966 5.044408 110 93 109
-2.289124 0.905187 4.912948 97 81 94
-1.903837 1.226565 4.088752 74 92 80
-2.331832 -0.575396 5.005159 96 82 105
-2.301763 -0.445382 4.947847 120 98 121
-2.317894 -0.188301 4.973694 91 81 108
-2.149193 1.001982 4.623275 97 87 98
-1.815907 1.075992 3.903517 60 77 59
-2.326814 -1.446625 5.021550 117 100 110
-2.296434 -0.383778 4.962869 73 55 79
-2.299771 -0.313728 4.970177 77 64 84
-2.312188 -0.651893 5.013761 125 105 133
-2.298434 -0.290724 4.971575 89 75 98
-2.298382 -0.136830 4.985439 97 80 99
-2.112853 1.018580 4.574172 94 87 94
-1.779775 1.052785 3.853273 86 102 89
-2.311263 -0.590799 5.017109 111 91 118
-2.305404 -0.495116 5.004843 103 86 105
-2.287982 -0.381905 4.969833 73 53 78
-2.293041 -0.270472 4.980886 92 77 100
-2.293320 -0.241918 4.982190 109 95 118
-2.294146 -0.222984 4.992686 86 71 92
-2.292369 -0.123876 4.986668 115 94 113
-2.136155 0.992819 4.639652 91 85 97
-1.313521 1.013294 2.853989 60 65 84
-2.243164 1.001369 4.883956 96 87 108
-2.291462 -0.542774 5.028967 121 105 131
-2.253584 0.156965 4.949270 63 52 66
-2.303435 -1.546450 5.073066 115 93 106
-2.267625 -0.446323 4.996339 92 73 93
-2.273237 -0.289388 5.009051 110 93 112
-2.274889 -0.239121 5.005770 109 90 109
-2.278974 -0.186792 5.019403 104 89 108
-1.801393 -1.016809 3.983386 127 109 123
-2.285009 -0.614861 5.042880 115 91 115
-2.284688 -0.571004 5.039643 59 46 64
-2.235162 0.923600 4.931499 77 67 76
-2.267684 -0.187053 5.029788 79 64 83
-2.225932 -0.465117 4.959258 94 75 94
-2.242160 -0.378597 4.987363 52 40 62
-2.251647 -0.327990 5.007716 79 65 82
-2.259620 -0.225703 5.026769 109 88 103
-2.262603 -0.689971 5.058866 126 100 127
-2.262650 -0.659871 5.068779 111 88 116
-2.003319 0.097415 4.487293 106 88 104
-2.083625 1.048502 4.666821 102 92 103
-2.263083 -1.566231 5.093152 82 59 69
-2.241077 -0.795373 5.033533 113 95 121
-2.201746 -0.580478 4.950763 99 75 99
-2.202372 -0.570150 4.945767 94 76 98
-2.232872 -0.131936 5.029346 97 76 91
-2.223201 -0.094624 4.993774 111 90 105
-2.172745 1.002036 4.886852 97 77 88
-1.728126 1.116967 3.886563 64 73 68
-2.231953 -0.289383 5.037614 108 100 124
-2.228364 -0.260985 5.040236 120 107 127
-2.230275 -0.178075 5.048503 74 60 77
-2.162625 0.751229 4.909019 78 66 86
-2.180736 0.907365 4.930025 89 77 91
-2.214720 -0.313938 5.027639 77 60 79
-2.201899 -0.146068 5.018522 109 92 110
-2.199571 -0.086702 4.991979 96 73 89
-2.185293 -0.384378 4.979713 107 86 105
-2.152874 -0.046313 4.911462 107 86 105
-2.188191 -0.650053 5.000387 119 95 121
-2.174269 -0.526861 4.970081 113 94 116
-2.213255 -0.235793 5.052215 112 90 103
-2.180874 0.142784 4.993529 75 61 76
-2.150127 0.779562 4.920404 101 84 102
-2.157149 0.850990 4.925775 83 68 87
-2.169419 -0.492817 4.987036 111 89 110
-1.868014 -0.917323 4.309138 110 84 97
-2.191885 -0.769624 5.050383 112 90 111
-2.165899 -0.571008 4.984144 77 59 81
-2.165400 -0.542139 4.981091 115 97 119
-2.166906 -0.475239 4.992732 118 97 116
-2.143113 -0.193561 4.934939 98 80 94
-2.140196 0.803617 4.929362 92 77 96
-2.057966 1.031503 4.748778 92 85 93
-2.174329 -0.844436 5.024925 128 106 129
-2.174074 -0.800874 5.027695 129 101 123
-2.162928 -0.349606 5.009347 97 74 90
-2.127334 -0.112779 4.936362 103 81 94
-1.873700 1.071683 4.343379 50 52 47
-2.153000 -0.953569 5.008648 101 82 104
-2.133551 -0.907182 4.984115 90 77 103
-2.143078 -0.590017 5.003048 115 92 118
-2.140493 -0.356943 5.003337 113 90 108
-2.143556 0.184519 5.010602 92 80 100
-2.135796 -0.559524 5.007959 87 70 89
-2.135956 -0.453626 5.021369 71 57 80
-2.137122 -0.314248 5.021780 77 60 79
-2.107558 -0.173461 4.953119 66 53 71
-2.108317 -0.051855 4.947410 116 95 110
-2.140097 0.167956 5.013674 84 70 85
-2.141893 0.255428 5.020077 83 60 86
-2.098790 0.635687 4.931711 103 91 111
-2.100133 0.754396 4.921968 50 43 61
-2.095762 0.810518 4.918121 92 77 96
-2.096088 0.829454 4.919850 99 85 108
-2.117357 -0.808611 4.975924 119 100 122
-2.119417 -0.746013 4.991994 93 74 94
-2.132072 -0.400539 5.009441 70 57 77
-2.129256 -0.359017 5.010021 118 93 112
-2.106108 -0.013616 4.948458 108 93 114
-2.101949 0.028089 4.951476 104 87 106
-1.969318 0.895806 4.633899 80 71 88
-2.123280 -0.535374 5.018360 106 84 105
-2.121803 -0.314501 5.007189 82 68 85
-2.094527 0.048723 4.949858 95 75 87
-2.088649 0.660097 4.932129 83 69 86
-2.065672 1.011335 4.882760 80 64 74
-1.492645 1.059518 3.528567 72 85 75
-2.112935 -0.949192 5.009369 106 88 110
-2.121205 -0.507520 5.025118 120 97 117
-2.103205 -0.238263 4.989100 111 91 103
-2.096042 -0.217802 4.978516 102 80 101
-2.092912 0.106097 4.971531 123 97 110
-2.124175 0.158909 5.038794 93 76 86
-2.069587 0.866266 4.903820 67 56 73
-2.067986 0.905251 4.907614 92 84 97
-2.096471 -0.829700 4.991663 119 96 116
-2.110630 -0.651390 5.023249 122 97 119
-2.093676 -0.766629 4.985783 118 99 121
-2.077250 -0.056462 4.971941 99 86 104
-2.064286 0.796650 4.929083 98 83 102
-2.080246 -0.835425 4.998766 109 90 109
-2.088123 -0.722622 5.001750 111 87 109
-2.075344 -0.120910 4.976640 104 91 111
-2.079363 0.205903 4.987839 119 107 119
-2.082924 -0.655111 5.014199 133 107 132
-2.068701 -0.175995 4.980062 79 66 83
-2.051464 0.790752 4.940310 85 71 88
-2.035639 0.884358 4.910480 81 69 83
-1.277242 0.955516 3.066920 68 81 72
-2.090802 -0.512044 5.048174 117 92 111
-2.074030 -0.590442 5.040895 127 105 128
-2.057168 -0.312283 4.987957 90 67 83
-2.058419 -0.091117 4.985668 55 46 65
-2.038500 0.716709 4.947015 102 77 83
-2.027066 0.890969 4.916628 79 67 81
-1.860863 1.002003 4.517916 92 85 92
-1.916615 -1.032556 4.686051 124 101 117
-1.701324 -0.637137 4.167785 86 71 94
-2.037330 -0.696043 4.980953 110 86 110
-2.064477 -0.585779 5.064619 81 59 80
-2.062034 -0.445368 5.057994 109 85 99
-2.051423 -0.364940 5.037055 112 88 110
-2.020738 0.197733 4.956721 60 51 68
-2.009521 0.907535 4.928701 82 72 83
-2.045286 -0.898765 5.027165 99 88 105
-1.695215 -0.703500 4.183266 108 90 114
-2.034806 -0.628710 5.002773 130 104 129
-1.595993 1.100502 3.924484 64 77 68
-2.045598 -0.406311 5.052736 100 84 95
-2.023163 -0.013017 4.996208 120 94 107
-1.900398 -0.983151 4.715428 117 89 103
-2.010378 -0.110090 4.999238 96 73 91
-1.989538 0.626933 4.930665 88 75 92
-1.993417 0.718143 4.944101 100 75 81
-1.998963 0.864199 4.949339 85 74 90
-1.732111 0.987513 4.300804 79 74 81
-1.995942 0.095690 4.974570 101 79 91
-1.994995 0.298041 4.977749 92 78 95
-1.986382 0.800581 4.944824 76 67 84
-1.797682 1.160115 4.478837 45 62 44
-1.804160 1.175106 4.491155 57 74 56
-2.031020 -1.548718 5.070736 73 59 72
-2.036878 -0.523364 5.090311 108 84 100
-2.016166 -0.452856 5.039810 117 92 111
-1.729522 0.988929 4.315889 91 86 93
-1.989753 -0.681139 5.004308 110 86 110
-1.989894 -0.633126 5.000802 114 90 114
-1.987916 -0.559035 4.987967 125 106 126
-1.987562 -0.544243 4.989910 114 93 112
-1.981813 0.241594 4.985427 55 39 49
-1.968303 0.870104 4.940460 92 79 89
-1.734921 0.945046 4.351748 87 77 86
-1.984623 -0.470209 4.997069 119 95 111
-1.953226 -0.230401 4.925593 111 90 105
-1.954517 -0.213049 4.923406 109 88 105
-1.980523 -0.153160 4.995438 110 93 112
-1.986733 -0.120970 5.007132 104 88 101
-1.989124 -0.042487 5.016611 109 87 99
-1.970300 0.032405 4.966436 58 48 59
-1.975078 0.175157 4.968391 88 75 93
-1.946438 0.639022 4.905025 104 82 95
-1.729458 0.925967 4.366205 78 67 81
-1.732000 0.937515 4.365356 88 78 89
-1.727416 0.977691 4.359203 87 80 87
-1.975880 -0.381241 4.990672 87 70 89
-1.974644 -0.367157 4.991846 100 82 104
-1.725965 0.994145 4.359012 75 70 77
-1.737917 1.056046 4.408212 80 70 79
-1.992872 -0.926855 5.054264 84 67 85
-1.966814 -0.674786 5.002067 100 80 105
-1.960995 -0.338953 4.988261 107 90 109
-1.960473 0.122762 4.977984 74 54 66
-1.939480 0.752794 4.922674 94 78 89
-1.723126 0.953515 4.384413 73 66 73
-1.733256 1.068228 4.402221 72 61 69
-1.858050 -0.929515 4.738518 118 97 116
-1.951284 -0.009688 4.978967 113 86 105
-1.946542 0.385783 4.971344 61 49 61
-1.937136 0.541694 4.936702 103 89 106
-1.938925 0.878141 4.945287 68 51 59
-1.757179 0.852701 4.483498 81 70 84
-1.718500 0.926460 4.377399 62 54 65
-1.942946 -0.483307 4.987646 118 94 110
-1.945168 0.152780 4.975990 69 52 70
-1.934534 0.445142 4.952349 107 84 94
-1.919636 0.593384 4.915224 86 75 91
-1.908429 0.656261 4.881751 113 87 98
-1.946038 -0.604250 5.011137 106 88 110
-1.946906 -0.458265 4.997996 106 79 96
-1.942185 0.354748 4.994732 83 66 82
-1.528868 1.143070 3.922009 52 60 62
-1.239009 1.146414 3.191589 60 66 80
-1.955037 -1.528871 5.043705 102 72 84
-1.845547 -1.074257 4.760752 107 85 98
-1.941570 -0.585000 5.012222 85 67 89
-1.944226 -0.401120 5.016856 56 39 55
-1.933714 -0.341562 4.987099 105 82 102
-1.915724 -0.058314 4.952927 104 83 100
-1.940272 0.256618 5.005257 80 60 72
-1.914912 0.528345 4.936734 53 41 55
-1.913453 -0.152989 4.961488 119 100 122
-1.908864 0.014024 4.947611 81 66 73
-1.934349 0.271453 5.008950 79 63 76
-1.893805 0.695871 4.894714 103 76 81
-1.701668 1.035393 4.413897 68 63 67
-1.908104 -0.494073 4.952187 116 89 106
-1.907945 0.060251 4.959567 73 64 83
-1.899857 0.435979 4.943492 93 71 83
-1.734860 0.839989 4.508098 65 50 57
-1.894565 -0.265562 4.941200 117 94 110
-1.896244 -0.180632 4.952775 86 69 88
-1.902054 -0.100212 4.961152 66 52 69
-1.900491 -0.027037 4.962811 119 94 115
-1.700063 1.093996 4.438151 62 56 58
-1.914107 -0.584705 5.016972 88 67 82
-1.917747 -0.401988 5.019436 73 55 71
-1.890208 -0.322251 4.966208 64 46 60
-1.888245 -0.286882 4.948889 113 92 111
-1.899443 0.099546 4.976391 75 61 76
-1.901942 0.149719 4.989144 92 79 96
-1.902944 0.193296 4.986694 113 89 102
-1.879508 0.574202 4.924677 58 47 63
-1.871830 0.753828 4.918501 53 41 55
-1.684556 0.907932 4.406870 75 59 69
-1.884640 -0.126766 4.967432 94 76 92
-1.870383 0.397079 4.912091 104 88 101
-1.874570 0.863207 4.947291 80 61 67
-1.653763 1.002193 4.363774 61 55 59
-1.876446 -0.181404 4.961343 70 53 69
-1.876936 -0.005060 4.962658 102 84 100
-1.864745 0.753808 4.920535 75 65 76
-1.659208 0.924190 4.387308 61 53 66
-1.902948 -1.113087 5.058692 109 81 96
-1.908954 -0.990583 5.062367 128 101 118
-1.862229 -0.450098 4.951580 113 86 101
-1.854582 0.327252 4.925202 87 70 86
-1.643992 1.109322 4.361876 41 52 44
-1.644260 1.145428 4.356344 62 76 63
-1.866541 -0.634013 4.984765 123 91 104
-1.865956 -0.573400 4.965168 81 66 87
-1.860734 -0.503455 4.954874 105 80 99
-1.863025 -0.394573 4.971101 69 50 69
-1.861631 0.017397 4.961570 71 58 67
-1.867152 0.078060 4.980798 97 77 89
-1.852823 0.211253 4.953675 112 85 94
-1.849173 0.552455 4.925574 63 49 66
-1.889895 -1.496229 5.055054 101 84 94
-1.966670 -1.398026 5.268303 98 87 104
-1.829483 0.704500 4.909191 97 76 83
-1.636727 0.990932 4.378670 91 86 93
-1.846438 -0.286833 4.976697 110 93 112
-1.843720 -0.574608 4.979569 61 44 62
-1.841257 -0.515224 4.971652 108 86 107
-1.844481 -0.390694 4.980248 100 82 98
-1.847432 -0.363272 4.980467 95 72 90
-1.844233 -0.307279 4.980967 59 43 56
-1.859334 -0.954792 5.045390 100 72 84
-1.830965 -0.104600 4.968441 56 40 50
-1.831345 -0.014770 4.964447 94 77 85
-1.612277 1.124434 4.376363 31 43 31
-1.609587 1.134233 4.359329 43 55 43
-1.825167 -0.226191 4.977777 95 78 96
-1.832507 -0.180982 4.979153 64 50 67
-1.831275 -0.142863 4.982902 59 44 63
-1.821754 0.148094 4.965255 83 65 81
-1.676172 0.932310 4.561720 68 56 66
-1.617813 1.005029 4.399835 83 76 84
-1.402607 1.082304 3.822221 44 52 54
-1.322248 1.106141 3.604722 64 74 73
-1.840891 -0.705738 5.035263 118 87 102
-1.827912 -0.579873 4.986616 83 60 70
-1.825790 -0.130724 4.984124 84 67 86
-1.803781 0.325323 4.934640 96 79 97
-1.706277 0.685006 4.671237 64 54 65
-1.847368 -1.496069 5.071887 86 65 84
-1.831721 -0.997376 5.038525 105 78 93
-1.798008 0.291122 4.939137 75 58 66
-1.802419 0.553504 4.941915 54 41 59
-1.802815 0.573541 4.941255 67 50 66
-1.624203 0.751948 4.451190 82 61 68
-1.611543 0.941522 4.415706 41 40 48
-1.821920 -1.037749 5.041893 123 96 111
-1.817764 -0.651291 5.004979 115 87 101
-1.809332 -0.262228 4.995311 69 50 69
-1.810041 -0.206912 4.990352 58 42 55
-1.803669 0.034575 4.964829 79 62 78
-1.807057 0.088478 4.971633 88 68 79
-1.795672 0.192205 4.955256 94 72 85
-1.603334 0.793097 4.436481 90 69 74
-1.603429 1.015674 4.414760 53 46 53
-1.824246 -0.907961 5.057521 60 39 54
-1.806440 -0.293476 4.999141 101 83 99
-1.795178 -0.098365 4.968493 33 20 30
-1.786320 -0.041386 4.960382 101 82 88
-1.797088 0.057247 4.975727 115 94 109
-1.784482 0.214491 4.955097 100 78 90
-1.815483 -1.127173 5.045284 109 81 95
-1.811066 -1.077261 5.047064 115 86 104
-1.816350 -0.983323 5.047127 110 82 96
-1.800267 -0.472589 5.011189 118 95 111
-1.802104 -0.358870 5.005430 101 78 94
-1.798223 -0.242670 5.000722 97 76 93
-1.780531 0.200524 4.954085 93 73 85
-1.769876 0.387156 4.928020 62 50 62
-1.769672 0.303229 4.948225 86 72 85
-1.351475 1.117843 3.770728 68 79 73
-1.790025 -1.009097 5.021270 121 94 109
-1.784821 -0.530672 5.015687 87 70 89
-1.783788 -0.418547 5.011972 48 36 48
-1.773999 -0.101783 4.975254 62 50 60
-1.775632 -0.028819 4.961265 89 72 78
-1.769504 0.256856 4.953815 62 48 61
-1.759685 0.430265 4.932271 90 72 84
-1.577219 1.024851 4.422992 74 57 65
-1.573171 1.073072 4.418332 79 60 66
-1.785715 -1.152545 5.025182 116 88 103
-1.795084 -0.763721 5.063224 103 80 96
-1.779971 -0.335545 5.011310 108 85 101
-1.766752 0.006618 4.964597 57 45 55
-1.581361 0.421865 4.459507 48 38 49
-1.582983 0.520222 4.462348 60 46 59
-1.592360 0.580392 4.477535 105 77 91
-1.597082 0.637442 4.507694 63 40 48
-1.578415 0.753647 4.456849 96 75 82
-1.568679 1.044625 4.423133 110 79 87
-1.558609 1.114493 4.399350 70 60 58
-1.552317 1.142286 4.375336 43 43 43
-1.795184 -0.846136 5.079866 110 83 100
-1.775575 -0.629486 5.023499 126 94 107
-1.764091 -0.282312 5.002895 109 82 97
-1.767412 -0.171528 5.000434 97 80 96
-1.755893 0.120897 4.965288 58 40 54
-1.753275 0.232998 4.964529 86 70 83
-1.754451 0.265001 4.961331 86 74 86
-1.752468 0.313918 4.957516 44 32 46
-1.573106 0.318431 4.452706 101 85 95
-1.569497 0.976830 4.435833 82 76 80
-1.348954 1.097789 3.823784 47 50 57
-1.760787 -1.031311 5.013092 113 86 105
-1.784776 -0.910078 5.072904 122 99 115
-1.779295 -0.719894 5.057535 119 86 97
-1.758659 -0.206840 4.998215 91 73 89
-1.743961 0.176195 4.960170 73 58 77
-1.570297 0.358495 4.454849 70 59 67
-1.572616 0.422753 4.461236 32 22 33
-1.572757 0.470939 4.461311 72 57 76
-1.588497 0.678781 4.510489 48 32 45
-1.792206 -1.405913 5.109927 117 89 103
-1.762405 -0.982794 5.031031 111 82 100
-1.782560 -0.829096 5.084980 116 89 106
-1.759231 -0.392910 5.024090 66 45 60
-1.754347 -0.283185 5.000697 103 79 93
-1.566778 0.533532 4.464274 55 43 55
-1.557958 0.864941 4.448534 68 56 68
-1.771303 -0.762019 5.070229 97 73 89
-1.753209 -0.678075 5.036779 92 65 80
-1.554270 0.670389 4.459311 70 55 62
-1.547195 0.816828 4.448917 42 36 40
-1.537352 1.113767 4.405888 69 50 52
-1.761096 -1.593505 5.071038 98 80 92
-1.743343 -1.081493 5.023553 123 98 119
-1.742625 -0.993368 5.013408 116 89 106
-1.750430 -0.507796 5.041584 112 86 99
-1.721387 -0.018351 4.953665 61 39 51
-1.721754 0.159644 4.963089 98 85 103
-1.547435 0.883246 4.452027 60 47 57
-1.538090 1.015607 4.434364 76 52 65
-1.756532 -1.313477 5.080545 106 83 99
-1.735533 -1.111198 5.028347 108 80 94
-1.730473 -1.018302 5.006194 126 99 116
-1.717214 -0.075415 4.962408 99 83 96
-1.548279 0.295848 4.478635 79 62 72
-1.539170 0.736413 4.457507 75 54 59
-1.534515 0.954641 4.447224 63 52 60
-1.360272 1.101301 3.940064 54 60 60
-1.747844 -1.538116 5.083474 101 80 97
-1.734957 -0.758982 5.051816 125 101 117
-1.696962 0.118773 4.952150 86 68 84
-1.544638 0.310358 4.492564 68 47 54
-1.540165 0.520852 4.475626 51 40 48
-1.534116 0.801826 4.458683 55 32 38
-1.533329 0.835893 4.456121 72 52 61
-1.528966 0.981394 4.447337 67 52 55
-1.511752 1.148459 4.389950 56 51 55
-1.739328 -1.570066 5.079730 117 92 113
-1.728869 -0.726525 5.040577 110 79 94
-1.703618 0.004413 4.959102 112 89 99
-1.696858 0.104821 4.959276 85 65 77
-1.695202 0.155487 4.959008 78 64 81
-1.571694 0.222387 4.589407 44 32 42
-1.526113 0.676033 4.451948 57 42 45
-1.745210 -1.463466 5.116823 115 88 105
-1.729108 -1.193200 5.057560 103 76 93
-1.562383 0.279470 4.572505 86 72 87
-1.536570 0.337517 4.495031 67 54 64
-1.529108 0.371678 4.493146 71 58 68
-1.528983 0.433306 4.488947 49 31 43
-1.528426 0.483936 4.483579 63 43 55
-1.527149 0.548740 4.478690 58 38 47
-1.515876 1.011925 4.444692 134 95 113
-1.497875 1.198216 4.394653 51 63 59
-1.727292 -1.358213 5.098559 128 97 113
-1.713430 -1.231684 5.054208 91 68 78
-1.697480 -1.033204 5.003236 115 90 109
-1.697790 -0.903759 5.003812 94 71 89
-1.705522 -0.844743 5.032144 114 91 111
-1.685259 -0.194125 4.956030 87 69 81
-1.588587 -0.392286 4.689338 111 91 102
-1.573190 -0.339114 4.665824 107 84 100
-1.683033 -0.130091 4.976259 82 64 90
-1.679973 -0.114107 4.975464 73 56 72
-1.508900 0.727159 4.463031 95 58 66
-1.706809 -1.571276 5.086148 119 97 118
-1.718639 -1.423566 5.118073 121 94 111
-1.562113 -0.312712 4.648513 118 92 105
-1.542418 0.269532 4.590502 80 62 76
-1.485664 1.121755 4.420778 84 65 67
-1.704382 -1.527150 5.092112 97 82 101
-1.680030 -1.111679 5.032521 99 76 94
-1.682469 -0.792134 5.033548 112 84 98
-1.682046 -0.757051 5.017993 91 68 84
-1.546751 -0.258085 4.631129 121 102 124
-1.499174 0.657512 4.469675 59 41 39
-1.701506 -1.610726 5.101727 98 75 93
-1.684391 -1.291807 5.052351 72 51 68
-1.672113 -0.996032 5.010059 126 95 110
-1.552906 -0.398827 4.665876 123 99 112
-1.503558 0.614466 4.496809 95 54 60
-1.488250 0.797517 4.465699 109 67 77
-1.685263 -1.472912 5.090088 123 98 119
-1.683678 -1.448609 5.085122 109 84 105
-1.678020 -1.208458 5.052047 102 80 101
-1.659603 -0.692818 5.003438 122 91 107
-1.535123 -0.243136 4.618061 106 84 105
-1.528245 -0.188047 4.619040 72 54 68
-1.492803 0.553307 4.491472 88 66 69
-1.489673 0.600966 4.500339 89 53 55
-1.476308 1.083057 4.449667 72 52 54
-1.656412 -0.748147 5.009418 101 78 96
-1.645111 -0.083452 4.984919 79 63 76
-1.643397 0.012467 4.979560 90 74 87
-1.644130 0.048713 4.973450 79 61 75
-1.491961 0.329720 4.529844 113 65 77
-1.484404 0.396330 4.505900 45 26 32
-1.484369 0.513267 4.497833 84 61 67
-1.484780 0.541076 4.499430 78 52 55
-1.474200 0.717675 4.475194 84 58 59
-1.473190 0.752036 4.476607 59 39 41
-1.661666 -1.150978 5.053825 113 87 100
-1.649276 -1.039698 5.027304 119 92 107
-1.523072 -0.282180 4.625829 86 59 74
-1.523435 0.233143 4.632414 62 47 54
-1.498456 0.315413 4.563228 117 71 81
-1.478280 0.464729 4.505733 53 34 36
-1.514666 -0.197610 4.631623 73 56 72
-1.518740 -0.184301 4.640060 73 55 71
-1.628707 0.010568 4.970161 68 52 63
-1.522510 0.194396 4.655971 70 50 61
-1.268024 0.854442 3.875825 93 61 72
-1.634179 -0.862996 5.012314 119 101 117
-1.635345 -0.790559 5.024240 117 91 104
-1.543400 -0.045129 4.743481 93 73 84
-1.463645 0.532264 4.506784 86 66 67
-1.465129 0.587848 4.509482 99 52 60
-1.458820 0.735050 4.478845 46 30 30
-1.510850 0.162009 4.669520 65 45 56
-1.459389 0.554620 4.508252 76 51 54
-1.624526 -1.380497 5.032775 123 92 110
-1.634389 -1.246874 5.066483 112 86 99
-1.618187 -0.990569 5.022079 112 89 105
-1.616896 -0.921650 5.019906 81 67 82
-1.518489 0.018585 4.716197 60 42 56
-1.440857 0.654714 4.476192 50 36 33
-1.625785 -1.148167 5.066350 110 80 92
-1.613495 -1.015900 5.024195 115 93 106
-1.607534 -0.697016 5.015776 117 90 105
-1.607441 -0.587045 5.010192 100 76 92
-1.481668 -0.375302 4.624362 122 84 95
-1.498301 0.217819 4.664600 78 62 72
-1.491861 0.280579 4.649095 80 47 58
-1.452006 0.425429 4.520739 82 61 68
-1.446862 0.490074 4.517786 52 23 28
-1.607956 -1.073894 5.039819 96 79 95
-1.491338 -0.182890 4.659883 58 38 50
-1.496128 0.063658 4.685854 63 47 57
-1.430845 0.716532 4.478524 79 51 48
-1.425681 0.752780 4.473305 51 35 36
-1.427730 0.817425 4.472767 88 57 63
-1.206880 0.985487 3.778424 62 53 58
-1.603617 -1.496813 5.053935 123 100 120
-1.603081 -1.303955 5.053376 92 74 88
-1.602867 -1.045034 5.035285 108 90 104
-1.286485 0.986952 4.055503 53 39 38
-1.200555 1.014475 3.773978 45 49 58
-1.592463 -1.421635 5.035785 120 95 114
-1.589029 -0.728426 5.024089 106 82 98
-1.590410 -0.631655 5.017496 112 88 102
-1.471707 0.249480 4.658790 99 57 67
-1.408749 0.766628 4.456693 87 57 59
-1.586305 -1.355863 5.049514 122 93 111
-1.595385 -1.239954 5.067145 109 92 108
-1.587184 -0.866049 5.031286 108 83 102
-1.464119 -0.558309 4.653354 103 79 93
-1.473685 -0.153075 4.694490 75 54 63
-1.478578 -0.111629 4.714826 59 47 57
-1.474124 0.155222 4.689800 69 53 63
-1.473692 0.164127 4.687696 72 56 66
-1.432210 0.334126 4.555290 93 57 61
-1.416193 0.597623 4.494137 67 38 42
-1.411792 0.614125 4.479842 78 42 46
-1.290974 0.999762 4.100281 49 35 34
-1.585244 -1.484647 5.063050 118 94 116
-1.590972 -1.184038 5.080307 112 83 101
-1.592833 -1.137678 5.071766 124 96 108
-1.576677 -0.815578 5.033862 112 88 102
-1.574226 -0.667407 5.025308 126 100 113
-1.413518 0.380833 4.528506 92 52 61
-1.389199 0.720274 4.453917 75 47 44
-1.575495 -1.286720 5.058037 101 80 97
-1.564839 -1.056973 5.039158 92 69 89
-1.450618 -0.553628 4.655041 111 85 98
-1.445786 -0.325295 4.634035 121 70 77
-1.439348 -0.229000 4.631218 69 30 35
-1.469169 -0.055969 4.720661 72 55 65
-1.463379 0.093869 4.703355 71 53 65
-1.407041 0.416610 4.525555 78 51 60
-1.408919 0.489633 4.517223 70 33 41
-1.387629 0.656419 4.460169 49 34 31
-1.387376 0.748418 4.457579 62 44 44
-1.557594 -0.842494 5.036896 106 82 96
-1.381111 0.703352 4.459315 57 38 34
-1.559789 -1.220551 5.046305 89 66 82
-1.442496 -0.536027 4.667316 106 79 94
-1.433672 -0.436357 4.644958 120 86 100
-1.448271 0.134559 4.703562 60 40 49
-1.392330 0.536614 4.507994 100 57 64
-1.233872 0.756068 3.988303 74 48 51
-1.555664 -1.560158 5.078521 114 86 100
-1.552053 -1.041268 5.043676 118 95 115
-1.433533 -0.494724 4.680871 122 94 108
-1.444407 -0.143828 4.708907 62 31 37
-1.448260 -0.101819 4.724707 69 50 54
-1.450147 -0.008508 4.723580 74 57 63
-1.442190 0.176978 4.696832 68 38 46
-1.225321 0.695859 3.985015 64 44 46
-1.541123 -0.736965 5.035911 120 93 108
-1.428293 -0.179276 4.679656 68 32 36
-1.432625 0.217367 4.695159 80 38 50
-1.396695 0.338341 4.566285 74 50 50
-1.366171 0.704057 4.463180 78 54 54
-1.221192 0.804635 3.989820 62 46 46
-1.540463 -1.383515 5.065725 127 102 121
-1.530859 -1.222103 5.039633 76 52 65
-1.532036 -1.082583 5.035438 92 68 84
-1.530661 -0.675027 5.037755 121 90 105
-1.375115 0.440888 4.517932 85 70 75
-1.175854 1.271402 3.871265 74 84 93
-1.527116 -1.290314 5.051302 95 77 91
-1.526599 -0.978405 5.053751 62 45 61
-1.521070 -0.927152 5.048018 98 86 108
-1.521774 -0.758098 5.043084 115 87 102
-1.358903 0.565742 4.495575 88 57 63
-1.352096 0.594856 4.468549 80 50 50
-1.352117 0.609736 4.462848 97 58 63
-1.169931 0.712562 3.883294 92 57 64
-1.523215 -1.577793 5.077063 117 86 102
-1.519280 -1.434091 5.069424 116 92 108
-1.519408 -1.178867 5.045693 119 90 108
-1.401196 -0.402283 4.648091 67 21 24
-1.389209 -0.309119 4.638121 133 82 91
-1.356419 0.364131 4.514107 111 73 86
-1.110373 1.030267 3.700410 48 50 63
-1.123403 1.153405 3.745209 68 69 87
-1.515028 -1.498218 5.068465 73 55 69
-1.517763 -1.381846 5.078992 115 89 102
-1.508094 -1.048703 5.050837 110 89 106
-1.510898 -0.715526 5.048050 105 77 91
-1.417048 -0.092316 4.730757 100 56 69
-1.416127 -0.048394 4.725893 111 64 80
-1.156503 1.313407 3.873646 75 81 97
-1.511151 -1.448184 5.066696 122 95 110
-1.504407 -1.301467 5.057575 84 64 76
-1.503044 -1.220451 5.048293 92 66 79
-1.505029 -1.111216 5.047286 123 93 105
-1.387208 -0.445452 4.668543 134 102 117
-1.385276 -0.232709 4.649456 84 49 56
-1.402442 0.170421 4.718075 96 53 63
-1.114912 1.123615 3.741539 54 56 71
-1.488279 -1.619420 5.034612 132 101 117
-1.501663 -1.566617 5.058990 121 88 105
-1.504812 -1.343049 5.073416 134 107 116
-1.386724 -0.539501 4.695646 105 87 103
-1.377255 -0.411867 4.659422 92 42 43
-1.397617 -0.124843 4.724889 59 24 30
-1.397515 0.162921 4.717069 82 41 49
-1.103229 1.151667 3.734893 65 66 86
-1.100719 1.175951 3.727093 74 75 96
-1.367955 -0.316731 4.645094 132 85 93
-1.390829 0.055002 4.729488 120 79 97
-1.329290 0.549011 4.499215 93 57 61
-1.368946 -0.434665 4.673098 126 78 92
-1.385119 0.123698 4.725620 128 77 94
-1.378507 0.271771 4.710433 146 95 112
-1.316723 0.532245 4.491185 112 71 77
-1.130656 0.664065 3.862116 79 59 61
-1.471718 -1.610532 5.059249 120 91 109
-1.465450 -0.912133 5.040718 94 75 95
-1.318670 0.332974 4.516350 87 56 61
-1.314222 0.397772 4.502671 73 47 48
-1.313133 0.510987 4.505971 89 58 63
-1.456156 -0.711422 5.024064 111 79 90
-1.373998 -0.085314 4.738973 74 42 47
-1.085686 1.099387 3.743631 43 43 55
-1.459695 -1.305565 5.063538 98 72 85
-1.461023 -1.242461 5.060404 104 76 90
-1.459519 -1.199408 5.059161 117 98 117
-1.452167 -0.965413 5.052723 108 77 93
-1.446825 -0.807151 5.018822 107 80 99
-1.350801 -0.438998 4.684561 143 95 111
-1.345077 -0.404976 4.672537 94 44 47
-1.344788 -0.226875 4.663277 112 58 71
-1.101867 0.903061 3.825447 80 58 60
-1.080544 1.123262 3.748507 46 45 59
-1.437776 -0.748126 5.017838 62 39 55
-1.373316 -0.561999 4.798585 119 91 106
-1.360684 -0.514326 4.744081 117 102 125
-1.359594 0.046249 4.744932 113 67 77
-1.353720 0.231323 4.727898 140 89 106
-1.094520 0.928509 3.815234 51 39 39
-1.448395 -1.503390 5.085503 129 103 116
-1.452541 -1.440311 5.094460 120 92 106
-1.443301 -1.107725 5.067334 51 34 52
-1.337192 -0.401715 4.674063 83 34 38
-1.347446 0.071498 4.748732 118 62 73
-1.349139 0.201299 4.733377 120 68 80
-1.283195 0.420605 4.504524 98 71 76
-1.285777 0.485161 4.506064 114 81 92
-1.055285 1.071750 3.707704 43 43 51
-1.445727 -1.392072 5.102726 122 91 106
-1.436914 -1.241573 5.066111 117 90 105
-1.434381 -1.207214 5.066367 85 71 86
-1.437653 -1.143724 5.061964 105 86 105
-1.442505 -1.016144 5.068056 106 75 91
-1.325763 -0.328355 4.661552 127 80 90
-1.323332 -0.291781 4.661624 84 38 48
-1.340278 0.274061 4.728690 142 89 105
-1.089065 0.906451 3.830833 47 27 28
-1.062938 1.162168 3.752661 55 56 74
-1.282829 0.317313 4.546501 101 64 71
-1.273732 0.370594 4.510020 105 67 78
-1.273188 0.470408 4.502715 97 69 81
-1.061894 0.640695 3.780309 66 46 48
-1.072952 0.668610 3.785019 76 44 47
-1.066220 0.808491 3.782012 44 30 30
-1.073851 1.016315 3.812273 126 120 134
-1.418036 -1.301368 5.062316 98 72 83
-1.424329 -1.158937 5.069723 121 98 116
-1.323710 -0.211288 4.702371 46 21 24
-1.334868 -0.012153 4.757933 100 56 69
-1.333433 0.050366 4.753177 94 52 62
-1.068697 0.606742 3.798876 51 33 31
-1.061632 0.651681 3.786109 83 54 59
-1.060180 0.744852 3.787451 76 49 54
-1.072445 0.960119 3.822873 47 33 33
-1.308003 -0.631187 4.677064 118 90 104
-1.064913 0.584534 3.815925 64 38 39
-1.036110 1.070892 3.717100 66 47 51
-1.048042 1.259762 3.751651 77 82 102
-1.406404 -1.576583 5.073909 125 98 117
-1.408252 -1.513300 5.078819 106 83 101
-1.417069 -1.425214 5.105751 110 84 97
-1.299056 -0.345798 4.673823 92 32 42
-1.320735 -0.058297 4.756357 52 25 30
-1.256895 0.316231 4.521585 88 56 59
-1.061952 0.934913 3.821546 30 25 22
-1.064224 0.981789 3.828121 50 28 31
-1.056059 1.036697 3.797871 82 55 64
-1.044396 1.117566 3.749425 61 45 55
-1.395181 -1.460168 5.050345 117 93 106
-1.387413 -1.361955 5.031744 118 90 102
-1.404731 -1.111242 5.082380 110 83 92
-1.311396 -0.013484 4.766973 97 61 71
-1.309735 0.138501 4.744382 138 85 101
-1.245956 0.398494 4.505468 62 24 37
-1.239432 0.508502 4.497702 100 67 78
-1.047027 0.619357 3.793039 42 26 27
-1.056377 0.891566 3.826794 89 63 72
-1.388314 -1.636710 5.065475 112 89 105
-1.396737 -1.166829 5.080091 129 102 119
-1.288259 -0.423560 4.706184 126 89 106
-1.305936 0.032073 4.769450 111 68 78
-1.300952 0.170224 4.743398 106 56 65
-1.015640 1.215498 3.712790 78 80 105
-1.384863 -1.555036 5.066007 102 74 89
-1.387494 -1.073109 5.077472 112 85 102
-1.296122 -0.613831 4.744417 119 88 104
-1.301917 0.064225 4.769542 109 61 75
-1.296555 0.179142 4.739807 114 62 74
-1.376102 -1.599427 5.077363 105 81 95
-1.372610 -1.231655 5.056503 93 67 78
-1.275710 -0.237127 4.707183 79 38 42
-1.298855 -0.018574 4.781460 86 50 60
-1.300982 0.010052 4.777372 92 46 57
-1.276520 0.238520 4.698271 125 71 85
-1.017183 1.063715 3.752705 66 41 45
-1.370205 -1.158627 5.087174 127 103 117
-1.362606 -0.967092 5.049642 110 79 95
-1.284012 -0.616460 4.740530 115 83 98
-1.290857 -0.098811 4.776526 89 49 50
-1.018748 0.810869 3.786205 46 31 34
-1.020977 1.049574 3.793607 82 58 58
-1.350803 -1.422783 5.049669 132 105 120
-1.349796 -1.293340 5.050284 86 56 68
-1.288044 -0.494168 4.808110 118 90 104
-1.263778 -0.410529 4.707110 116 79 96
-1.265438 -0.235702 4.726650 78 36 40
-1.028857 0.914496 3.845603 52 27 30
-1.026569 0.938032 3.833193 37 23 23
-1.008135 1.124913 3.760834 61 42 46
-1.343787 -0.924612 5.053581 104 74 86
-1.283952 -0.765350 4.815646 113 82 98
-1.274132 -0.161568 4.774325 77 38 41
-1.281517 -0.023252 4.800189 67 27 36
-1.267808 0.181599 4.749474 111 58 68
-1.259638 0.214197 4.728542 112 56 69
-1.253901 0.254374 4.687401 112 60 73
-1.014712 0.686901 3.795137 68 39 43
-1.019122 0.877507 3.833379 65 34 42
-0.989066 1.070830 3.701755 71 46 50
-0.996927 1.151180 3.749663 79 73 87
-1.344519 -1.228813 5.072815 112 84 96
-1.347582 -1.205804 5.094361 123 99 113
-1.249541 -0.283580 4.701516 102 52 61
-1.199712 0.314222 4.531644 122 85 93
-1.199345 0.326428 4.526060 98 67 72
-1.021805 0.984961 3.844070 117 85 96
-1.333506 -1.541148 5.065973 107 75 86
-1.333684 -1.508498 5.064386 99 75 88
-1.251639 -0.469531 4.752419 97 71 84
-1.263297 -0.058079 4.802544 86 44 54
-1.265116 -0.035303 4.806892 65 35 37
-1.187665 0.449857 4.509905 124 82 94
-1.003609 0.616226 3.798231 74 44 46
-1.001151 0.655053 3.781324 76 49 54
-1.331531 -1.597583 5.076328 111 85 98
-1.320897 -1.020601 5.047816 114 87 106
-1.253829 -0.102949 4.798216 86 44 48
-0.977706 1.178795 3.734883 57 59 74
-0.973729 1.202288 3.731281 83 84 102
-1.316253 -1.402655 5.064448 132 102 114
-1.327756 -1.191169 5.095826 112 88 102
-1.225344 -0.567152 4.707724 98 74 90
-1.231623 -0.376137 4.717123 88 47 61
-1.244946 -0.126904 4.795921 78 33 36
-1.000278 0.933648 3.838379 106 62 75
-1.319269 -1.162430 5.088816 126 102 116
-1.248331 -0.044099 4.811616 85 49 51
-1.172829 0.308263 4.535296 99 63 77
-1.170594 0.417090 4.514955 92 56 66
-1.164420 0.489576 4.505885 72 36 46
-1.306872 -1.511148 5.069708 76 56 68
-1.294416 -1.049732 5.032348 114 87 104
-1.217482 -0.298349 4.726938 90 53 60
-1.223783 -0.247473 4.748746 120 67 75
-1.236699 -0.120574 4.796979 86 41 44
-1.167062 0.376629 4.525011 87 44 54
-1.052472 0.572417 4.079366 159 120 138
-1.301724 -1.589192 5.081807 115 87 102
-1.288318 -0.949932 5.042965 101 76 95
-1.287866 -0.911302 5.043091 72 50 62
-1.292735 -0.836069 5.045422 107 79 94
-0.975165 0.704200 3.820440 60 29 35
-0.951247 1.156968 3.727636 53 55 68
-1.290086 -1.519258 5.074069 64 44 53
-1.289165 -1.190371 5.081521 112 88 104
-1.192201 -0.631402 4.703937 118 90 105
-1.196772 -0.579332 4.697784 122 95 112
-1.198048 -0.551147 4.705025 115 92 110
-1.206478 -0.416721 4.729503 106 76 88
-1.198794 -0.324725 4.740132 72 44 56
-1.215780 -0.160798 4.791278 90 41 45
-1.217095 0.148806 4.776445 100 61 79
-0.983955 1.019180 3.864255 74 50 63
-0.969473 1.082650 3.814812 85 53 58
-0.928463 1.080101 3.669335 69 44 47
-1.273021 -1.402142 5.080451 96 77 96
-1.264171 -1.051276 5.028339 123 100 116
-1.192201 -0.337812 4.747165 83 56 65
-1.200094 -0.191427 4.789168 78 37 43
-1.213151 0.017493 4.822608 63 21 31
-1.201217 0.164642 4.779425 102 65 82
-1.197898 0.211957 4.759956 114 56 68
-1.136744 0.417374 4.518746 122 82 93
-1.128005 0.490171 4.506328 67 30 37
-1.267149 -1.610205 5.071930 102 74 88
-1.254834 -1.120749 5.039569 102 79 95
-1.182563 -0.477612 4.738317 102 65 73
-1.182131 -0.375383 4.746614 81 48 57
-1.200632 -0.085378 4.811464 97 55 65
-1.134822 0.333308 4.533979 85 55 63
-1.262589 -1.590305 5.079400 118 91 110
-1.262172 -1.544591 5.075902 108 76 87
-1.262882 -1.478954 5.080065 135 107 122
-1.172209 -0.414850 4.743705 128 77 94
-1.181528 -0.355811 4.747445 104 69 76
-1.189958 -0.146349 4.804575 102 55 63
-1.191979 0.080088 4.819242 76 42 56
-1.111300 0.573532 4.479145 123 82 96
-0.930220 1.250995 3.745458 87 88 108
-1.256172 -1.499298 5.079942 84 62 75
-1.168582 0.285273 4.727355 131 77 93
-0.916854 1.064009 3.710422 81 52 56
-1.237200 -1.634693 5.056168 114 87 102
-1.227842 -0.959945 5.014227 111 83 98
-1.158949 -0.418753 4.746508 130 77 95
-1.179949 -0.027405 4.829143 122 62 64
-0.936373 0.712430 3.821089 66 37 42
-1.161985 -0.257554 4.782128 88 45 55
-1.163292 -0.247820 4.784172 93 50 60
-1.096152 0.477153 4.515347 70 35 41
-0.928516 0.759791 3.818510 71 43 57
-0.937240 1.048726 3.861489 119 86 103
-0.909524 1.044243 3.743832 59 30 35
-0.906828 1.167662 3.734881 65 58 65
-1.212122 -0.958213 5.006958 115 84 100
-1.208257 -0.913374 5.002656 114 92 105
-1.207458 -0.838584 5.008440 104 76 90
-1.164607 -0.171885 4.813920 96 51 58
-1.154087 0.236926 4.787629 135 81 94
-1.092939 0.371151 4.529110 112 68 83
-1.091439 0.422514 4.521986 86 59 66
-1.215750 -1.616282 5.066586 123 95 109
-1.143111 -0.322901 4.770646 107 65 79
-1.160367 0.103733 4.818890 110 59 66
-1.083860 0.555335 4.497064 126 74 86
-0.894353 1.121265 3.712716 76 50 53
-1.207554 -1.664069 5.062834 122 97 116
-1.214334 -1.531929 5.083454 106 76 86
-1.127878 -1.141955 4.721494 113 87 100
-1.133778 -1.079068 4.755985 113 86 101
-1.183319 -0.983162 4.960904 107 79 93
-1.196162 -0.971081 4.994750 112 81 96
-1.136039 -0.402260 4.759482 117 76 90
-1.138280 -0.304937 4.774800 102 60 74
-1.148968 -0.142748 4.822198 94 52 62
-1.143521 0.214875 4.795063 120 60 70
-1.207049 -1.567305 5.080417 116 86 96
-1.117949 -1.208661 4.705828 101 74 89
-1.187157 -0.902465 5.003272 109 88 103
-1.127936 -0.419335 4.758183 126 79 95
-1.139631 0.249534 4.793084 140 87 103
-1.201041 -1.458954 5.104393 116 89 106
-1.136131 -1.044887 4.820084 122 100 113
-1.120951 -0.491890 4.760491 78 40 53
-1.066321 0.420220 4.522926 124 84 95
-1.103198 -1.109449 4.719057 125 104 119
-1.056365 0.490429 4.513035 77 31 42
-0.923330 1.045934 3.941271 110 67 84
-0.889921 1.094312 3.822227 79 50 54
-1.178868 -1.618301 5.085625 80 56 69
-1.187085 -1.483462 5.106232 129 102 117
-1.165208 -0.936272 5.012269 109 85 99
-1.111810 -0.428173 4.771310 116 62 75
-1.116131 -0.233134 4.802900 107 57 66
-0.839519 0.678598 3.617484 79 47 52
-1.086465 -1.229780 4.714880 114 86 100
-1.095911 -1.081695 4.737298 118 90 105
-1.113814 -1.024280 4.831271 110 87 103
-1.158047 -0.950166 5.006536 108 81 98
-1.118595 -0.052963 4.835894 67 27 38
-1.044692 0.329375 4.525696 99 62 70
-0.882737 1.140811 3.816045 84 47 54
-1.092191 -0.432512 4.780481 120 68 80
-1.105943 -0.170051 4.826815 74 30 43
-1.109336 0.149981 4.819644 85 34 41
-1.103438 0.237997 4.822408 134 82 94
-0.847238 1.128437 3.695333 85 54 59
-1.161564 -1.477000 5.105625 124 96 110
-1.083844 -0.697560 4.753707 62 43 62
-1.083999 -0.574251 4.766572 57 30 37
-1.100015 -0.103324 4.836761 119 62 69
-1.098591 -0.017071 4.837478 102 70 91
-0.803550 0.666945 3.533728 75 40 44
-0.888280 1.069367 3.894796 123 88 112
-1.064852 -1.151466 4.718503 144 113 128
-1.086506 -0.408697 4.784236 121 69 81
-1.078539 -0.366652 4.781749 109 59 70
-1.086731 -0.297208 4.790336 98 52 63
-1.089903 -0.214381 4.812690 105 59 70
-1.096598 0.052741 4.830235 83 41 45
-1.096356 0.242931 4.829022 136 84 96
-1.025004 0.322623 4.522524 92 54 67
-1.023876 0.380079 4.522108 86 42 57
-0.919845 0.644484 4.073854 72 38 39
-0.868003 0.806798 3.834826 83 44 49
-1.146512 -1.581357 5.096044 138 111 130
-1.060661 -1.235008 4.735163 116 84 97
-1.062093 -1.128068 4.725840 120 78 92
-1.071980 -1.068870 4.753372 114 77 94
-1.078628 -1.034600 4.801116 119 93 106
-1.128067 -0.877089 5.019397 74 57 73
-1.018677 0.417162 4.526643 97 65 78
-1.014112 0.488731 4.517588 86 44 56
-1.135078 -1.618541 5.096427 76 53 69
-1.068674 -0.456591 4.788363 94 56 69
-1.127653 -1.533726 5.095059 99 78 97
-1.058694 -0.706736 4.762919 60 50 59
-1.048419 -0.672701 4.754893 121 77 94
-1.054352 -0.610567 4.763466 64 33 39
-1.063894 -0.324775 4.804468 86 45 59
-1.068874 0.038570 4.825551 89 39 50
-1.001772 0.334474 4.525568 104 66 81
-0.945314 0.623358 4.264378 126 80 93
-1.119850 -1.580742 5.098260 119 98 117
-1.055173 -0.300209 4.810622 99 55 70
-1.061347 -0.115938 4.836876 105 58 68
-1.063995 0.238261 4.834126 141 85 96
-1.071488 0.266107 4.878327 115 61 74
-0.775647 0.652670 3.524469 81 46 50
-0.789839 1.274147 3.589351 84 89 109
-1.043067 -0.948167 4.793931 78 61 69
-1.042284 -0.811832 4.758564 94 76 92
-1.048059 -0.539093 4.784193 78 35 44
-1.051972 -0.425614 4.799729 89 39 51
-1.050061 -0.388348 4.800483 90 36 52
-0.993226 0.448921 4.531557 126 82 99
-0.775390 1.239812 3.552417 89 95 117
-1.110931 -1.661619 5.107454 98 79 99
-1.108631 -1.540597 5.096995 128 110 132
-1.031086 -1.061906 4.761222 82 39 48
-1.036558 -0.886615 4.776292 76 58 70
-1.034147 -0.853515 4.766281 64 48 59
-1.035805 -0.570133 4.787202 88 41 49
-0.984366 0.334836 4.525239 96 58 71
-0.762224 0.676400 3.524710 73 43 53
-0.767296 0.818372 3.539603 59 26 35
-1.091977 -1.464965 5.085907 123 96 111
-1.018059 -1.231567 4.719206 122 90 103
-1.014142 -1.200133 4.701459 108 84 98
-1.030931 -0.982040 4.783568 71 38 49
-1.023587 -0.704096 4.747070 107 80 95
-1.027580 -0.528955 4.803247 82 47 54
-1.042615 0.149116 4.824263 71 25 35
-1.039860 0.216534 4.841792 122 65 74
-0.756243 0.750298 3.522526 95 64 72
-0.758845 0.888734 3.521067 86 56 68
-0.752753 1.042327 3.490674 86 51 57
-1.028969 -0.501316 4.810964 111 70 86
-1.054259 0.273422 4.935773 105 53 66
-0.964037 0.303349 4.519941 140 86 99
-0.750434 0.738802 3.517534 74 44 52
-0.747087 1.008690 3.500754 62 27 33
-0.744900 1.075604 3.486486 81 52 56
-0.747071 1.097241 3.489306 70 41 45
-1.029964 -0.120177 4.834548 103 56 72
-0.748496 0.833813 3.525263 107 76 84
-0.740484 1.131054 3.486807 53 48 55
-1.072719 -1.579966 5.079681 115 94 111
-1.003243 -0.873474 4.768001 78 62 72
-0.999950 -0.768101 4.748275 87 65 68
-1.005032 -0.638160 4.758307 63 22 26
-1.013611 -0.525094 4.812159 68 28 37
-1.016922 -0.404291 4.831911 122 67 73
-1.016559 -0.049839 4.829649 82 39 49
-0.741775 0.885633 3.512516 101 70 78
-0.738335 1.100101 3.491786 77 51 54
-0.993707 -1.206559 4.728460 94 66 81
-1.011541 -0.348990 4.820580 118 64 78
-0.743533 1.236100 3.545971 83 87 112
-0.997367 -0.591535 4.796917 64 32 37
-1.001178 -0.432577 4.832984 118 62 73
-0.937701 0.398360 4.523386 62 26 38
-0.934165 0.502222 4.504275 110 65 85
-0.730787 0.705547 3.518520 81 48 55
-0.997358 -0.132193 4.838292 116 64 76
-0.994440 -0.086282 4.834685 113 57 66
-0.996148 0.155439 4.823467 97 65 88
-1.001629 0.217419 4.850470 126 65 72
-0.725622 0.816944 3.529164 99 65 79
-0.727170 0.845211 3.525687 83 46 54
-0.717421 0.946797 3.485321 120 81 99
-0.975826 -0.692576 4.762480 90 53 61
-0.720336 0.674667 3.520035 69 34 38
-0.721770 0.726441 3.520625 99 66 75
-0.719216 0.756810 3.522417 68 33 40
-0.981686 -1.491282 4.836204 123 104 124
-0.983324 -0.357162 4.828444 109 61 75
-0.978876 -0.306271 4.836134 120 59 74
-0.982153 0.012658 4.824642 70 34 48
-0.712781 0.896170 3.511798 84 53 68
-0.711887 0.922177 3.501996 110 64 77
-0.972717 -0.124800 4.839797 128 69 71
-0.700646 1.026765 3.494372 113 78 85
-0.969309 -1.528685 4.849645 130 108 129
-0.946957 -1.122306 4.722921 113 60 66
-0.956875 -0.865529 4.780120 57 36 41
-0.969201 -0.269656 4.836449 86 48 59
-0.964512 0.071646 4.828075 93 61 82
-0.865510 0.509909 4.347691 139 85 101
-0.706330 0.810432 3.521426 90 57 66
-0.963053 -1.484991 4.867811 124 106 130
-0.996823 -1.374514 5.037933 117 90 107
-0.948632 -0.743287 4.772995 92 51 59
-0.960554 -0.583762 4.825403 90 47 56
-0.958210 -0.452244 4.846130 84 52 65
-0.899187 0.421244 4.524425 142 96 109
-0.899241 0.476397 4.517114 139 96 115
-0.693405 0.789264 3.510093 92 54 65
-0.694143 1.100464 3.498784 98 63 70
-0.693410 1.135510 3.492053 98 70 82
-0.690339 1.200589 3.488881 88 89 117
-0.702221 1.241958 3.547742 87 92 111
-0.991584 -1.389601 5.039510 125 94 110
-0.944921 -0.952243 4.787012 56 26 26
-0.941410 -0.778150 4.773552 108 67 75
-0.955143 0.251885 4.830976 146 96 107
-0.895674 0.326021 4.536542 111 61 70
-0.943808 -1.569955 4.842128 143 126 145
-0.946396 -0.087230 4.835763 89 40 46
-0.939988 0.223558 4.823972 122 61 69
-0.677407 0.828053 3.468612 106 63 73
-0.676013 0.933357 3.474519 114 70 85
-0.679036 0.955912 3.483235 152 109 128
-0.917358 -1.076747 4.723084 72 26 36
-0.930334 -0.784825 4.778622 126 79 89
-0.933977 -0.646678 4.811277 70 28 32
-0.934250 -0.522751 4.840532 94 43 50
-0.938922 -0.123421 4.837096 87 34 40
-0.936505 0.019968 4.834836 107 54 62
-0.676852 1.138458 3.491401 81 53 65
-0.918538 -0.715481 4.786973 94 57 65
-0.901743 -1.050049 4.725155 113 73 82
-0.921232 -0.040920 4.837607 64 28 30
-0.865171 0.401171 4.528754 87 45 59
-0.856000 0.499251 4.484766 127 83 106
-0.822826 0.624813 4.324540 162 121 137
-0.658843 0.847976 3.467123 128 82 95
-0.663001 0.865751 3.471416 124 78 91
-0.671375 1.207757 3.524602 102 103 133
-0.950143 -1.405946 5.046242 105 82 102
-0.898215 -1.192284 4.743922 110 76 93
-0.915611 -0.613231 4.838241 71 34 41
-0.820862 0.595026 4.344052 110 60 71
-0.656966 0.914481 3.479332 136 89 107
-0.906917 -1.585686 4.840159 62 34 46
-0.895617 -0.953481 4.784909 60 34 43
-0.894158 -0.784960 4.788527 81 45 59
-0.913588 -0.595941 4.841809 84 44 52
-0.903440 -0.378776 4.836150 82 42 51
-0.849585 0.302249 4.542875 146 87 105
-0.852317 0.324005 4.543180 113 62 69
-0.814321 0.575294 4.335781 111 63 75
-0.656461 1.123166 3.508462 100 64 74
-0.890994 -0.839078 4.787023 96 55 69
-0.889874 -0.743501 4.794478 98 55 72
-0.898576 -0.068268 4.829014 99 50 54
-0.821114 0.551886 4.410835 145 96 117
-0.654071 1.176569 3.505030 79 81 102
-0.899738 -1.496722 4.890214 121 103 127
-0.871342 -1.163609 4.737317 110 74 84
-0.890225 -0.163544 4.824522 131 78 88
-0.643094 1.000853 3.495344 121 77 94
-0.646732 1.035018 3.500602 90 49 57
-0.888641 -1.547248 4.872149 85 57 69
-0.902221 -1.463439 4.933834 69 49 74
-0.876394 -0.836814 4.791466 108 58 67
-0.878371 -0.776474 4.793701 117 63 79
-0.888299 -0.539347 4.845815 77 28 34
-0.883248 -0.362742 4.842638 59 30 35
-0.885733 -0.271847 4.843243 74 31 41
-0.881286 -0.015371 4.828067 53 17 17
-0.886463 0.082456 4.830865 73 27 38
-0.883218 0.154116 4.812198 97 55 67
-0.636036 0.898435 3.473746 128 81 101
-0.645144 1.161159 3.510076 81 85 96
-0.905389 -1.427021 4.979953 93 76 94
-0.914408 -1.407218 5.053900 84 71 88
-0.854168 -1.078358 4.732546 85 44 52
-0.864658 -1.012098 4.762085 71 46 52
-0.874929 -0.673196 4.818549 112 63 69
-0.877319 -0.620971 4.854056 80 43 50
-0.876537 -0.470516 4.844073 100 53 61
-0.638465 1.122625 3.515434 96 60 70
-0.862893 -1.237359 4.782502 77 60 76
-0.854791 -1.134252 4.737511 83 57 68
-0.871034 -0.315566 4.849289 110 60 72
-0.863921 0.210925 4.808457 123 63 71
-0.631645 1.219550 3.520849 95 97 122
-0.878557 -1.464842 4.928645 98 84 101
-0.902928 -1.412464 5.053573 51 37 52
-0.853489 -0.773504 4.801874 125 74 81
-0.860531 -0.100821 4.820040 128 78 89
-0.858788 -0.061981 4.819663 89 40 44
-0.863461 -0.003404 4.826694 64 30 29
-0.808799 0.293717 4.527916 148 89 109
-0.626339 1.058476 3.508048 105 61 76
-0.860263 -1.560356 4.856504 113 60 66
-0.837217 -1.091796 4.739551 62 36 45
-0.846538 -0.973504 4.794075 80 47 56
-0.845881 -0.816031 4.801356 104 53 68
-0.851175 -0.716129 4.810560 111 64 74
-0.854041 -0.660287 4.827531 73 34 39
-0.856834 -0.289592 4.851784 92 40 52
-0.858776 -0.248909 4.846222 113 57 68
-0.852091 -0.177752 4.833319 133 79 92
-0.852335 0.072613 4.830001 119 64 70
-0.800024 0.439524 4.513469 133 90 107
-0.613533 0.779354 3.465110 130 82 98
-0.613658 0.933694 3.470929 130 83 103
-0.625328 1.152675 3.526017 71 55 66
-0.887166 -1.391988 5.066164 73 57 68
-0.828589 -1.057338 4.745893 37 16 23
-0.841046 -0.935692 4.798939 80 41 46
-0.843578 0.053052 4.829827 109 52 58
-0.775838 0.626691 4.428557 85 66 96
-0.772024 0.691465 4.419235 111 58 66
-0.606574 0.882643 3.468890 94 51 70
-0.613000 0.978691 3.496348 128 101 120
-0.619476 1.023782 3.527684 96 52 67
-0.823375 -1.161883 4.752183 67 51 61
-0.840841 -0.633575 4.844334 79 48 56
-0.844732 -0.308713 4.854452 104 57 67
-0.768565 0.641279 4.420059 154 124 148
-0.597842 0.754635 3.466589 102 54 68
-0.603367 0.811642 3.463726 122 73 92
-0.815833 -1.060406 4.750423 44 34 35
-0.827318 -0.903844 4.801606 61 29 34
-0.822663 0.208798 4.802923 119 62 68
-0.783072 0.327851 4.543221 103 60 67
-0.777986 0.417572 4.518972 124 73 88
-0.778539 0.489609 4.506189 108 61 77
-0.863228 -1.344799 5.064235 63 44 50
-0.813018 -1.211384 4.767605 84 68 79
-0.824393 -0.363455 4.851416 82 42 50
-0.827086 -0.272569 4.850057 83 41 53
-0.819609 0.161603 4.821323 106 60 73
-0.776894 0.379263 4.544998 99 52 68
-0.763934 0.590772 4.475902 92 52 61
-0.590100 0.760684 3.466970 86 38 50
-0.806210 -1.151800 4.756621 60 44 55
-0.806713 -0.962481 4.794969 69 29 37
-0.814914 -0.925404 4.796821 85 49 51
-0.809831 -0.810462 4.815405 74 38 48
-0.814099 -0.773815 4.825505 75 36 54
-0.815899 -0.721673 4.831951 84 43 59
-0.816490 -0.659858 4.840252 86 45 61
-0.819012 -0.626600 4.848658 94 60 74
-0.816683 -0.533483 4.843865 110 57 67
-0.812368 -0.161067 4.823168 122 76 86
-0.817405 0.085531 4.829120 61 24 32
-0.596853 1.022049 3.536812 129 78 95
-0.601897 1.134027 3.544272 91 58 67
-0.817811 -1.532506 4.875222 74 39 43
-0.814201 -0.610271 4.849253 84 51 60
-0.811119 -0.486464 4.840420 98 55 64
-0.770421 0.286537 4.598104 135 78 93
-0.750186 0.611666 4.442022 97 60 68
-0.578957 0.782847 3.460811 127 79 95
-0.580876 0.796010 3.460989 101 54 70
-0.835658 -1.347896 5.056465 64 37 44
-0.800607 -0.932622 4.799943 73 37 39
-0.800782 -0.595508 4.848917 86 51 58
-0.802701 -0.016524 4.821587 91 49 53
-0.800032 0.175776 4.823901 106 60 70
-0.816466 -1.463055 4.944332 48 19 21
-0.791482 -0.970104 4.801415 79 38 46
-0.747452 0.423745 4.540942 146 101 121
-0.567903 0.850330 3.457472 90 52 73
-0.783527 -1.254425 4.806864 96 65 73
-0.776593 -1.148494 4.766338 71 55 65
-0.782518 -0.955279 4.814388 88 47 53
-0.785799 -0.894055 4.825956 76 46 56
-0.788110 -0.334124 4.861121 116 65 82
-0.787430 -0.274974 4.857279 60 22 37
-0.778383 -0.038282 4.812189 66 25 31
-0.737352 0.486086 4.509283 109 65 82
-0.558907 1.008528 3.406034 105 62 72
-0.574690 1.245453 3.530208 75 81 97
-0.794955 -1.491350 4.927166 56 24 27
-0.777314 -0.132390 4.813989 117 67 76
-0.773836 -0.106095 4.815495 109 62 70
-0.743066 0.238421 4.619329 140 86 100
-0.786053 -1.547667 4.908145 58 26 31
-0.759940 -1.191436 4.774518 73 51 63
-0.761836 -1.011525 4.783107 69 34 40
-0.774490 -0.395331 4.847517 64 38 47
-0.773948 0.132448 4.832596 71 30 46
-0.798098 -1.378671 5.051539 68 36 41
-0.763660 -0.429087 4.843500 110 60 71
-0.766097 -0.416462 4.842839 68 35 44
-0.770259 -0.308625 4.863764 107 57 68
-0.762904 -0.097226 4.816839 106 56 65
-0.711101 0.475574 4.517314 84 41 58
-0.704250 0.622025 4.470338 108 67 83
-0.719275 0.281714 4.625023 131 73 85
-0.700914 0.427582 4.539229 119 74 95
-0.527328 0.990172 3.409509 99 55 72
-0.778416 -1.418098 5.037314 74 33 41
-0.739281 -0.993287 4.817788 83 41 45
-0.748225 -0.905583 4.838464 77 44 51
-0.741874 -0.615579 4.858519 82 40 50
-0.747552 -0.472874 4.846975 98 60 71
