ply
format ascii 1.0
element vertex 1204
property float x
property float y
property float z
property uchar red
property uchar green
property uchar blue
end_header
-1.318937 -1.574179 7.536422 140 139 145
-1.309574 -1.490335 7.475544 55 57 56
-1.285027 -1.080968 7.332919 109 101 99
-1.279033 -0.848600 7.286875 61 50 54
-1.255904 -0.384828 7.187716 105 91 82
-1.257953 -0.365597 7.184381 148 128 121
-1.259453 -0.352696 7.188404 117 92 87
-1.339966 0.105347 7.669229 93 90 99
-1.351603 0.168187 7.683785 42 36 40
-1.342846 0.219172 7.667004 87 81 83
-1.210395 1.447913 6.929876 203 197 201
-1.214833 1.532589 6.916268 66 65 70
-1.188062 1.726199 6.795965 38 27 23
-1.339142 -1.777011 7.669253 211 203 190
-1.282533 -1.220898 7.368662 202 188 185
-1.280748 -1.153782 7.331958 76 63 57
-1.278587 -1.092361 7.338022 117 113 114
-1.267432 -0.978326 7.297482 74 70 71
-1.267037 -0.773039 7.261280 89 79 80
-1.222713 0.943368 7.068592 110 117 123
-1.223665 1.202164 7.025031 53 49 50
-1.211675 1.325129 6.998144 170 166 167
-1.206663 1.382303 6.961200 96 93 100
-1.185781 1.711955 6.828164 94 90 87
-1.159318 1.859020 6.660493 217 193 181
-1.147889 1.936264 6.613774 195 187 185
-1.290558 -1.501838 7.481466 175 171 168
-1.270063 -1.187027 7.354060 201 178 164
-1.245376 -0.721182 7.243475 52 44 41
-1.252401 -0.166405 7.288628 79 64 59
-1.210837 1.268459 7.021499 113 109 110
-1.204278 1.359436 6.977152 141 139 140
-1.194833 1.541928 6.921611 14 9 13
-1.189633 1.610276 6.904980 128 119 122
-1.127270 2.000885 6.563592 213 206 190
-1.363934 -2.692121 7.977466 90 88 89
-1.363768 -2.564478 7.974555 24 15 10
-1.356398 -2.329381 7.928855 61 58 65
-1.340656 -2.089216 7.848158 94 88 92
-1.265082 -1.383985 7.430176 124 115 100
-1.268621 -1.357232 7.416400 98 88 86
-1.248228 -1.067516 7.317486 146 135 131
-1.308968 0.209419 7.665816 57 51 53
-1.278132 0.536629 7.462961 127 124 135
-1.250048 0.657762 7.331264 94 87 95
-1.222827 0.853167 7.179004 73 63 64
-1.198112 1.026177 7.054395 105 101 92
-1.189415 1.331142 6.994168 124 120 121
-1.157889 1.732554 6.793223 79 63 63
-1.120060 2.145389 6.576577 104 85 81
-1.343809 -2.488869 7.947293 115 110 104
-1.332276 -2.178816 7.861723 161 150 144
-1.328163 -2.126248 7.837608 117 108 109
-1.274343 -1.641454 7.556461 77 69 67
-1.220654 -0.618283 7.199690 183 174 157
-1.252543 0.643138 7.347586 95 92 101
-1.131375 1.797045 6.692024 167 152 131
-1.128434 1.847617 6.667349 184 159 137
-1.105036 2.071923 6.545863 80 64 48
-1.337626 -2.732784 7.975999 83 83 83
-1.340669 -2.688677 7.981773 144 144 152
-1.334192 -2.439158 7.951061 104 95 96
-1.317376 -2.013011 7.815186 90 76 73
-1.277620 -1.734123 7.611706 210 197 180
-1.246556 -1.352376 7.417766 82 73 64
-1.219140 -0.974144 7.278507 248 233 212
-1.202594 -0.446401 7.167849 150 131 117
-1.220918 0.728220 7.283075 150 154 163
-1.213498 0.787589 7.243984 117 112 116
-1.192077 0.931438 7.127329 67 66 64
-1.183284 1.069965 7.060162 121 112 107
-1.184887 1.087828 7.048136 126 120 124
-1.184457 1.138896 7.031808 101 92 93
-1.157154 1.594221 6.917477 93 89 90
-1.154876 1.677901 6.881663 76 70 82
-1.306249 -2.163110 7.846953 147 129 119
-1.248951 -1.536018 7.499851 59 54 58
-1.241385 -1.386343 7.435038 165 151 151
-1.201508 -0.912157 7.245755 73 52 35
-1.209793 -0.042032 7.309765 90 78 78
-1.263095 0.291679 7.623181 79 79 81
-1.251479 0.422334 7.555573 112 106 108
-1.179591 1.012093 7.084154 232 229 224
-1.158958 1.403600 6.965912 75 76 80
-1.150098 1.583318 6.927289 152 147 151
-1.143461 1.615675 6.911682 56 52 53
-1.144682 1.645766 6.899395 92 92 94
-1.136831 1.701803 6.857575 111 111 111
-1.090357 2.145941 6.563599 107 101 101
-1.320554 -2.704268 7.992304 169 168 186
-1.309305 -2.351002 7.916369 63 57 61
-1.285727 -2.116613 7.813107 174 166 164
-1.194254 -0.839066 7.238016 81 76 80
-1.183207 -0.527336 7.173608 216 188 177
-1.197913 -0.158834 7.262645 192 173 169
-1.221279 0.054778 7.442853 68 68 70
-1.228148 0.480822 7.492799 109 107 112
-1.226063 0.553790 7.424774 132 130 135
-1.300961 -2.643412 7.992217 94 92 97
-1.205473 -1.280879 7.387722 126 118 115
-1.198803 -1.091841 7.324811 164 148 133
-1.175218 -0.599658 7.182730 239 208 188
-1.172271 -0.320564 7.168688 190 167 159
-1.185304 -0.219779 7.227067 81 64 56
-1.199649 0.673946 7.324961 101 104 111
-1.146827 1.206618 7.046183 91 90 88
-1.148901 1.256347 7.042292 18 17 15
-1.127593 1.531000 6.950589 131 123 121
-1.068354 1.927275 6.582317 176 166 156
-1.289235 -2.422960 7.940470 81 68 75
-1.270729 -2.268143 7.859900 153 146 154
-1.261945 -2.127112 7.814217 116 103 95
-1.208493 -1.480088 7.465879 187 180 172
-1.160344 -0.507461 7.167222 218 200 190
-1.238590 0.247401 7.640870 65 59 61
-1.237151 0.263906 7.638751 124 119 123
-1.173768 0.733156 7.279899 163 154 155
-1.174644 0.827493 7.225780 48 46 47
-1.125173 1.488582 6.961577 74 69 66
-1.108929 1.671213 6.887226 157 155 160
-1.105580 1.694722 6.859809 105 104 109
-1.101323 1.716956 6.804933 159 162 167
-1.058253 2.027222 6.531502 218 200 188
-1.280602 -2.744908 8.013392 112 112 110
-1.287558 -2.707591 8.014695 107 106 114
-1.280201 -2.504538 7.952181 132 122 120
-1.252246 -2.033585 7.798309 216 205 199
-1.211838 -1.663903 7.546262 122 116 116
-1.150466 -0.374327 7.151481 159 151 148
-1.211322 0.356062 7.575367 75 78 85
-1.125645 1.333190 7.027973 134 128 132
-1.118622 1.405771 6.994457 84 78 82
-1.106629 1.638124 6.917164 95 91 92
-1.259232 -2.361554 7.901485 136 128 126
-1.218934 -1.945718 7.673082 182 172 160
-1.172706 -1.304768 7.400512 146 146 146
-1.171946 -1.172166 7.353117 43 39 27
-1.156798 -0.997379 7.274154 139 131 129
-1.136492 -0.699330 7.195794 93 81 67
-1.138976 -0.541660 7.166055 210 199 193
-1.188861 0.462647 7.501253 56 54 57
-1.153084 0.707439 7.300437 132 135 140
-1.131148 0.925150 7.161338 135 133 136
-1.049394 1.818489 6.657788 217 205 193
-1.039238 1.891596 6.580112 163 136 119
-1.032746 1.996044 6.514774 242 224 220
-1.187654 -1.772554 7.547424 183 174 179
-1.190470 -1.750819 7.556787 163 150 144
-1.142081 -0.905654 7.231627 180 163 153
-1.148343 -0.077118 7.283620 170 155 150
-1.200565 0.204905 7.622440 103 94 97
-1.159075 0.567058 7.382586 143 142 147
-1.147651 0.673869 7.328575 79 78 84
-1.140770 0.732794 7.288603 107 102 106
-1.136728 0.806087 7.244141 92 87 91
-1.136043 0.819858 7.236740 77 75 78
-1.131069 0.852689 7.212995 131 129 134
-1.114688 1.025904 7.120886 152 142 151
-1.105496 1.277045 7.043519 82 73 74
-1.099362 1.340180 7.020930 123 121 126
-1.078783 1.659390 6.897999 55 50 56
-1.022222 2.080975 6.496402 74 66 63
-1.218984 -2.199585 7.824121 156 145 141
-1.178654 -1.857170 7.556840 145 134 128
-1.126639 -0.703993 7.195590 89 72 65
-1.141595 0.055994 7.303681 117 111 113
-1.089149 1.477211 6.985282 203 204 206
-1.040624 1.759368 6.669356 131 121 112
-1.226345 -2.509140 7.954037 137 125 127
-1.208506 -2.048177 7.779691 133 122 116
-1.152053 -1.517771 7.478596 187 170 162
-1.139630 -1.223271 7.374707 181 167 158
-1.108978 -0.819205 7.212630 110 98 98
-1.101625 -0.499940 7.147436 208 183 163
-1.134418 0.655047 7.342850 154 152 157
-1.103738 0.931025 7.174887 105 104 109
-1.099640 0.985730 7.165439 139 137 142
-1.095593 1.091637 7.099792 21 20 25
-0.999351 1.948837 6.507228 170 151 147
-0.997264 2.037504 6.479825 196 185 179
-1.226393 -2.596697 8.008115 136 133 140
-1.219824 -2.563229 7.990682 123 121 124
-1.218513 -2.497276 7.957041 133 131 134
-1.153567 -1.776324 7.537900 121 112 113
-1.149443 -1.622046 7.512729 138 137 132
-1.133631 -1.399730 7.440735 235 225 215
-1.121115 -1.087858 7.307377 139 129 130
-1.106708 -0.909222 7.230298 102 91 89
-1.104127 -0.132170 7.241508 88 79 80
-1.098468 0.907203 7.190008 109 108 113
-1.053199 1.630497 6.926444 110 105 109
-1.152940 -1.944429 7.634195 187 180 174
-1.128831 -1.451565 7.458848 242 232 231
-1.109511 -1.129609 7.329713 38 28 27
-1.077583 -0.286180 7.128209 169 156 150
-1.116514 0.612124 7.355398 118 116 121
-1.097499 0.796573 7.260689 114 109 113
-1.070992 1.268487 7.057431 158 143 146
-1.048972 1.598562 6.950593 128 124 125
-1.017862 1.721833 6.779599 191 179 167
-1.169945 -2.215119 7.809121 203 195 193
-1.165591 -2.181764 7.797681 95 88 82
-1.101669 -1.190174 7.357354 221 193 171
-1.079141 -0.921398 7.237217 142 129 120
-1.070064 -0.595275 7.157251 135 121 112
-1.075653 -0.539936 7.151439 181 173 160
-1.088083 -0.042306 7.263034 207 190 180
-1.102370 0.577461 7.364873 132 131 136
-1.092026 0.723795 7.295955 96 99 104
-1.052944 1.385324 7.023775 63 61 62
-1.049704 1.408804 7.017876 48 46 51
-0.969964 1.913299 6.480021 216 193 185
-0.962445 1.959790 6.474244 116 104 92
-0.983952 2.182136 6.566419 164 147 137
-1.162792 -2.318368 7.848865 196 180 164
-1.161104 -2.264957 7.832037 132 114 114
-1.118222 -1.687638 7.528938 193 177 178
-1.097447 -1.271445 7.391212 118 112 114
-1.073460 -0.958234 7.252357 158 155 140
-1.072250 -0.756250 7.195390 251 231 224
-1.062564 -0.374171 7.122929 92 83 78
-1.080548 0.018468 7.269962 191 171 162
-1.084730 0.694693 7.312605 122 122 130
-1.060273 1.032258 7.159110 149 146 153
-1.170351 -2.450010 7.928634 137 132 128
-1.161502 -2.310348 7.845116 196 180 164
-1.054263 -0.589311 7.154140 83 74 69
-1.079734 0.341658 7.356730 138 129 132
-1.074321 0.540630 7.379894 145 136 139
-1.040946 1.180046 7.085742 118 117 122
-0.942801 2.029044 6.456586 194 171 165
-1.077972 -1.319335 7.415855 91 81 82
-1.066008 -1.188752 7.362724 156 145 139
-1.066304 -1.107517 7.331674 176 159 143
-1.043388 -0.881543 7.233314 128 126 129
-1.039590 -0.439322 7.130714 43 41 42
-1.057602 0.648932 7.330768 137 138 142
-1.042430 0.954602 7.199820 166 165 171
-1.038002 1.095126 7.130229 97 92 96
-0.938616 2.002977 6.460334 224 214 202
-1.162071 -2.736224 8.065844 159 158 163
-1.155075 -2.605551 8.030462 69 70 65
-1.148908 -2.479426 7.958288 53 51 54
-1.140823 -2.376665 7.880476 178 167 181
-1.118430 -2.106716 7.758831 194 184 182
-1.076882 -1.398710 7.446454 241 227 218
-1.038118 -1.010826 7.286000 117 115 120
-1.031665 -0.131311 7.193260 165 150 143
-1.018374 1.322038 7.060464 108 102 102
-1.014441 1.399413 7.044354 59 57 62
-0.957782 1.708258 6.654434 226 227 211
-0.935205 1.793162 6.537810 218 208 198
-0.927143 1.861438 6.462092 193 173 164
-1.109073 -2.235326 7.801012 216 198 194
-1.077507 -1.861889 7.581653 203 201 206
-1.050993 -1.277502 7.402412 184 173 169
-1.022758 -0.757460 7.191496 185 176 169
-1.021200 -0.547942 7.146077 168 151 143
-1.013465 -0.211640 7.116675 115 92 78
-1.030054 0.045821 7.246835 163 139 111
-1.036262 0.160138 7.296213 200 189 187
-1.047957 0.381251 7.369212 114 106 104
-1.038997 0.609922 7.346911 153 153 155
-1.025901 0.983034 7.204309 146 137 142
-1.109284 -2.395104 7.882096 103 100 109
-1.082940 -2.053940 7.716948 161 153 151
-1.049495 -1.542962 7.486156 129 125 124
-1.042029 -1.203928 7.376386 200 178 165
-1.034935 -1.072461 7.309700 147 137 128
-1.026785 -1.012563 7.287862 108 106 109
-1.002548 -0.262611 7.103610 194 175 160
-0.998376 1.200428 7.093088 210 202 200
-0.992974 1.279652 7.074300 55 43 43
-0.981752 1.573801 6.976011 28 29 34
-0.978294 1.624792 6.924945 136 129 137
-0.933341 1.715260 6.634334 230 218 206
-0.905763 2.021977 6.448755 199 177 164
-0.908754 2.040121 6.454586 226 213 194
-1.127863 -2.795342 8.085586 150 144 144
-1.087201 -2.274369 7.807766 210 195 192
-1.012178 -0.870173 7.238893 36 34 35
-1.001197 -0.722507 7.179505 163 152 146
-0.998728 -0.631198 7.153073 80 72 69
-0.984482 -0.322251 7.103518 184 167 160
-0.997363 -0.149312 7.157032 155 140 133
-1.016009 0.259573 7.325377 190 169 152
-1.024750 0.586462 7.351958 122 120 125
-1.008804 0.836898 7.255072 143 139 130
-0.993587 1.061653 7.156623 92 83 84
-0.982998 1.341436 7.057508 71 68 75
-1.099311 -2.477161 7.959894 68 66 79
-1.036690 -1.755161 7.532080 133 129 130
-1.033124 -1.604413 7.496746 127 117 116
-1.006718 -1.038123 7.309983 121 102 87
-0.987262 -0.104910 7.181428 223 210 204
-0.990671 -0.004650 7.207633 221 197 185
-1.003610 0.237976 7.321106 215 193 182
-1.013108 0.444510 7.371589 165 152 146
-0.973499 1.396756 7.066185 147 144 151
-0.965883 1.515841 7.041782 77 76 81
-0.919429 1.703005 6.675318 163 167 166
-0.887243 1.866651 6.456214 235 230 226
-0.887654 2.028877 6.454014 186 169 159
-1.058092 -2.246336 7.790395 179 171 160
-0.978776 -0.652552 7.156045 152 152 144
-0.975433 -0.556317 7.140272 112 102 103
-0.967942 -0.518237 7.135059 167 162 168
-0.984259 0.039037 7.214602 123 98 93
-0.992412 0.155728 7.268177 202 183 168
-0.997079 0.331925 7.316648 124 115 116
-1.003292 0.488294 7.357801 149 135 135
-0.996479 0.510881 7.357875 139 123 124
-0.967777 1.247208 7.088254 207 201 201
-0.963866 1.339652 7.072596 71 71 79
-0.965862 1.459319 7.077394 72 67 73
-0.895980 1.758380 6.589088 218 211 203
-1.088861 -2.763896 8.083523 70 65 62
-1.080171 -2.574998 8.033595 61 56 53
-1.037829 -2.020031 7.691416 204 192 178
-1.009178 -1.384699 7.444427 77 75 78
-0.979105 -0.908570 7.253723 130 124 126
-0.970296 -0.814996 7.218966 22 17 21
-0.980701 0.137008 7.262099 199 177 163
-0.991512 0.569563 7.355017 147 143 144
-0.987732 0.639009 7.342542 86 78 76
-0.956431 1.305766 7.082982 134 120 119
-1.066845 -2.516002 8.010897 126 123 130
-1.036047 -2.241510 7.781065 172 159 151
-1.039375 -2.141023 7.759142 79 60 46
-0.988639 -1.241479 7.395842 221 213 200
-0.976196 -1.009735 7.303222 98 82 66
-0.967910 0.381384 7.318570 205 194 188
-0.980592 0.706048 7.324174 71 72 77
-0.965573 0.882590 7.247739 160 148 136
-0.947550 1.179633 7.114685 245 231 220
-0.886490 1.712883 6.678492 208 206 207
-0.880399 1.772010 6.593743 207 197 195
-0.861451 1.856708 6.460253 255 245 233
-0.865137 2.018702 6.468410 178 164 163
-1.063302 -2.664234 8.065447 136 132 133
-0.995715 -1.637539 7.494141 134 121 112
-0.983801 -1.488208 7.469720 128 127 125
-0.948792 -0.773473 7.198929 109 112 117
-0.946496 -0.707122 7.175435 64 58 58
-0.938143 -0.554543 7.137702 60 54 56
-0.941533 -0.485356 7.126791 113 109 108
-0.945075 -0.430918 7.115147 81 75 77
-0.938628 -0.393056 7.108098 218 201 191
-0.933549 -0.363368 7.099881 205 183 169
-0.936303 -0.155580 7.138928 155 145 143
-0.950962 0.992071 7.216869 148 139 134
-0.943671 1.132069 7.132802 58 61 70
-0.850825 1.978622 6.459675 148 131 124
-1.054548 -2.545852 8.022861 62 58 59
-1.015903 -2.352130 7.815288 143 130 121
-1.012238 -2.219103 7.768107 133 123 114
-0.969600 -1.286231 7.418999 125 121 120
-0.960297 -1.110836 7.343900 50 48 51
-0.949278 -0.978837 7.301945 76 65 63
-0.936054 -0.614923 7.149689 180 171 174
-0.949753 0.198588 7.278577 121 103 91
-0.953564 0.405018 7.318455 164 149 144
-0.950920 0.734014 7.308573 133 131 132
-0.844198 1.801855 6.500777 235 235 227
-1.044609 -2.787360 8.097817 158 152 152
-0.997712 -2.142277 7.752779 103 90 84
-0.981250 -1.877300 7.604460 64 58 60
-0.976030 -1.698299 7.509606 149 149 151
-0.961352 -1.358155 7.443717 148 148 148
-0.927894 -0.681864 7.167824 137 131 133
-0.920995 -0.532159 7.136770 90 89 85
-0.944579 0.573826 7.337357 156 146 147
-0.909599 1.572829 7.035655 81 76 82
-1.033010 -2.683460 8.060358 112 108 107
-0.991344 -2.220500 7.768912 161 151 141
-0.985079 -1.999574 7.700114 114 106 103
-0.952756 -1.537715 7.487700 121 119 122
-0.925793 -0.924695 7.283331 40 36 37
-0.923682 -0.696733 7.172024 147 141 145
-0.906084 -0.094450 7.153525 210 205 209
-0.915113 0.061396 7.191509 142 124 120
-0.924572 0.362999 7.295009 199 180 173
-0.880533 1.649301 6.914396 237 232 229
-0.871249 1.691799 6.894567 241 232 233
-0.967832 -2.062909 7.733961 79 77 80
-0.930726 -1.193353 7.389305 93 90 85
-0.924671 -1.071373 7.335739 132 130 135
-0.913046 -0.845269 7.254502 65 63 66
-0.894799 -0.317168 7.094864 137 124 115
-0.895113 -0.188169 7.120784 139 118 113
-0.903878 0.017341 7.177372 83 60 52
-0.918382 0.485314 7.318156 132 122 120
-0.916249 0.673120 7.332386 112 106 108
-0.892910 1.366162 7.118398 49 48 54
-0.810416 1.883598 6.454363 253 239 236
-0.972536 -2.134436 7.749440 107 102 99
-0.940354 -1.751909 7.549890 95 93 98
-0.932564 -1.440632 7.475584 49 41 39
-0.907631 -1.048447 7.342915 49 49 49
-0.879865 -0.279753 7.094057 115 101 100
-0.907833 0.254311 7.266901 166 150 137
-0.909154 0.442523 7.315763 151 141 139
-0.881147 1.223205 7.121984 70 73 78
-0.858738 1.689305 6.902650 211 206 202
-0.794572 2.068139 6.443163 175 152 144
-0.954310 -2.237907 7.763872 182 171 165
-0.944674 -1.932511 7.680531 222 217 213
-0.919776 -1.696912 7.515665 87 83 82
-0.915172 -1.275964 7.422117 102 100 105
-0.906478 -1.118248 7.349993 125 123 128
-0.894924 0.738059 7.310195 130 128 133
-0.897140 0.841275 7.263793 104 100 99
-0.872064 1.154240 7.164070 71 66 70
-0.872495 1.332360 7.117733 52 43 46
-0.810569 1.759037 6.640582 198 175 161
-0.796987 1.793663 6.547081 203 198 195
-0.792206 1.870445 6.469386 218 214 205
-0.946575 -2.319167 7.778251 178 169 164
-0.875981 -0.801508 7.237973 96 91 95
-0.871938 -0.473302 7.129701 112 106 108
-0.865070 -0.358094 7.102635 162 147 140
-0.860645 -0.204405 7.110749 44 23 4
-0.873533 0.093132 7.196102 162 148 139
-0.870143 1.062357 7.200911 132 128 129
-0.864237 1.445534 7.139932 79 73 77
-0.793053 1.805577 6.535326 192 190 191
-0.779743 1.919180 6.441266 137 126 120
-0.931177 -2.137551 7.751399 78 67 63
-0.909798 -1.778783 7.570093 87 86 82
-0.899389 -1.690235 7.515881 101 96 93
-0.903096 -1.529889 7.485652 96 96 104
-0.876108 -0.938756 7.304636 113 108 112
-0.876885 -0.889167 7.287652 174 169 175
-0.855373 -0.580080 7.148200 219 196 180
-0.849551 -0.328574 7.089853 217 211 211
-0.850407 -0.073088 7.143951 83 81 86
-0.871197 0.179882 7.233601 159 145 134
-0.873051 0.530024 7.319902 194 189 186
-0.856090 1.166543 7.182056 66 59 67
-0.861304 1.435892 7.140398 156 151 155
-0.821643 1.714665 6.907693 168 159 150
-0.774011 1.851596 6.477069 160 156 155
-0.948472 -2.577469 8.028182 53 52 58
-0.868830 -1.133237 7.351339 152 150 153
-0.845999 -0.000745 7.151828 216 191 186
-0.847077 0.032588 7.160558 193 176 168
-0.862151 0.394909 7.289720 156 143 135
-0.847558 0.921525 7.254325 148 146 149
-0.851727 1.229337 7.192217 36 44 47
-0.846757 1.552918 7.135922 78 71 78
-0.770719 1.822667 6.514734 171 163 161
-0.944580 -2.694181 8.083924 115 110 107
-0.902102 -2.186519 7.733946 131 129 134
-0.906028 -2.089080 7.747217 89 83 85
-0.902917 -1.932308 7.715586 204 195 186
-0.883265 -1.688246 7.527626 147 138 139
-0.835481 -0.632030 7.163641 207 190 183
-0.830819 -0.120946 7.138474 190 177 168
-0.842456 0.079313 7.186802 117 107 97
-0.851931 0.739156 7.321050 131 121 122
-0.850375 0.857371 7.275503 119 117 122
-0.838760 1.440014 7.168192 107 105 110
-0.802410 1.780548 6.865963 221 212 205
-0.931417 -2.780706 8.108349 82 73 74
-0.872546 -1.630447 7.514274 68 66 67
-0.861403 -1.508404 7.491177 67 65 68
-0.864331 -1.381558 7.474686 94 90 91
-0.862141 -1.259436 7.426688 147 144 153
-0.846126 -1.070240 7.346556 126 127 131
-0.821857 -0.466553 7.122789 134 134 134
-0.817386 -0.425739 7.111394 170 146 134
-0.824234 -0.189467 7.118135 106 87 81
-0.827214 -0.078996 7.142614 55 50 54
-0.829761 0.034120 7.164834 174 154 147
-0.840849 0.228380 7.250038 174 157 147
-0.838521 0.298954 7.267388 156 145 143
-0.841004 0.642963 7.331558 137 131 133
-0.833782 1.211125 7.215771 50 41 46
-0.827796 1.382375 7.196302 124 122 127
-0.754337 2.048246 6.594790 113 107 109
-0.881765 -2.217272 7.746001 161 152 153
-0.884588 -2.027762 7.739204 141 139 142
-0.829379 -0.792244 7.246694 201 191 190
-0.815957 -0.595788 7.151320 179 169 160
-0.807872 -0.241495 7.096063 125 115 116
-0.817382 -0.012778 7.153427 150 136 135
-0.778467 1.727157 6.897731 209 197 181
-0.732647 1.910163 6.493062 114 103 101
-0.744334 2.095797 6.604889 93 65 62
-0.882876 -2.420121 7.827915 207 199 188
-0.821416 -1.073627 7.350306 142 141 146
-0.824537 -1.007056 7.341001 129 127 128
-0.820427 -0.928577 7.309604 102 98 97
-0.813376 -0.862934 7.289512 143 139 140
-0.812330 -0.706510 7.196409 143 131 119
-0.824766 0.486623 7.306254 171 160 158
-0.811490 0.994244 7.257864 154 150 151
-0.803066 1.352914 7.200233 97 88 91
-0.898363 -2.666996 8.084445 118 117 122
-0.864248 -2.395011 7.822491 206 196 194
-0.860110 -2.307984 7.770491 208 194 191
-0.857893 -2.070008 7.744292 154 148 152
-0.847332 -1.747520 7.584303 92 87 84
-0.830574 -1.686227 7.560691 75 69 71
-0.826081 -1.364820 7.473372 102 100 103
-0.794771 -0.464351 7.121898 146 144 147
-0.791914 -0.271494 7.089346 145 135 134
-0.796466 -0.129136 7.136271 110 101 102
-0.795006 0.178204 7.228907 135 118 110
-0.803377 0.272582 7.258995 148 133 128
-0.809352 0.789880 7.318237 163 158 162
-0.805478 1.007958 7.261862 166 160 162
-0.794374 1.234234 7.233024 115 114 119
-0.803281 1.266858 7.219174 73 70 77
-0.795005 1.562934 7.176182 115 115 117
-0.760052 1.760748 6.899049 214 202 186
-0.760638 1.793515 6.882850 153 152 148
-0.730783 1.846887 6.530628 142 143 145
-0.725096 1.912558 6.502431 158 148 147
-0.898204 -2.795359 8.120252 109 99 107
-0.851658 -2.268146 7.765879 206 196 195
-0.851546 -2.015630 7.745026 140 134 134
-0.851949 -1.947304 7.734333 94 93 89
-0.787362 -0.507318 7.131614 86 75 69
-0.801376 0.426023 7.288832 143 123 122
-0.794674 0.617529 7.326946 124 118 118
-0.801032 0.727801 7.335536 151 139 141
-0.796846 0.947899 7.297969 112 106 110
-0.739991 1.873427 6.740239 164 164 172
-0.872432 -2.595230 8.055298 80 69 75
-0.829811 -1.849892 7.731559 176 163 157
-0.825004 -1.718513 7.658666 78 76 77
-0.819195 -1.671492 7.601073 31 27 28
-0.768694 -0.373715 7.097387 60 52 49
-0.771583 -0.230291 7.098292 129 125 126
-0.790201 0.695105 7.336835 175 170 176
-0.782883 1.240313 7.251792 129 127 132
-0.773447 1.497383 7.194456 85 80 86
-0.744767 1.685359 6.956109 137 139 151
-0.747461 1.744065 6.920612 162 148 135
-0.738293 1.816579 6.863719 128 117 111
-0.830358 -2.357018 7.794281 202 187 180
-0.825178 -2.101588 7.772626 137 128 129
-0.786536 -1.001156 7.351970 61 59 62
-0.780002 -0.873411 7.302377 73 76 85
-0.777438 -0.795993 7.267539 184 182 185
-0.759133 -0.444188 7.112318 135 133 138
-0.762708 -0.160098 7.123322 109 101 98
-0.763005 -0.074462 7.142547 112 106 108
-0.755795 0.031967 7.157184 117 111 113
-0.770748 0.186349 7.238144 164 150 147
-0.781731 0.838121 7.327611 161 155 159
-0.819230 -2.159958 7.770590 197 186 184
-0.798687 -1.492499 7.569530 88 83 89
-0.738686 -0.410261 7.103274 167 165 168
-0.748019 -0.340485 7.097370 41 37 36
-0.745042 -0.267254 7.095267 114 107 114
-0.769694 0.604056 7.324754 140 134 134
-0.763376 0.661312 7.327363 117 107 108
-0.768725 0.872151 7.329246 152 150 155
-0.757838 1.391329 7.222262 96 92 93
-0.840847 -2.797494 8.148685 146 140 150
-0.810006 -2.351217 7.797851 169 161 158
-0.800598 -1.898640 7.760580 81 81 83
-0.746291 -0.705339 7.212710 170 167 174
-0.739042 0.012815 7.151874 150 151 155
-0.735343 0.062789 7.169466 82 71 75
-0.749708 0.347729 7.276673 114 112 115
-0.759022 0.518374 7.314918 174 160 159
-0.758045 0.537688 7.315458 164 154 152
-0.755571 1.045277 7.308344 153 147 147
-0.752352 1.215630 7.274739 122 117 123
-0.745299 1.295794 7.239984 52 57 60
-0.687936 2.137126 6.674808 110 104 106
-0.827966 -2.612736 8.076856 115 110 104
-0.796584 -1.748771 7.734328 81 81 81
-0.787081 -1.563095 7.733914 84 82 85
-0.768773 -1.285569 7.495004 114 113 118
-0.753824 -1.101382 7.395094 110 109 115
-0.741349 0.209289 7.262447 124 103 98
-0.736149 0.296595 7.273006 161 151 149
-0.736677 0.402708 7.288986 87 75 75
-0.749608 0.733081 7.342646 157 148 151
-0.732284 1.274558 7.250271 83 78 82
-0.737041 1.385179 7.224422 76 72 73
-0.814564 -2.703738 8.141847 108 106 109
-0.818716 -2.650938 8.120531 88 83 90
-0.797712 -2.505010 7.876358 123 123 123
-0.758979 -1.363638 7.536854 87 86 92
-0.726211 -0.813400 7.282103 121 120 125
-0.726356 1.446262 7.200722 150 141 144
-0.694705 1.804085 6.912373 217 217 209
-0.673230 1.962110 6.737892 167 157 165
-0.810284 -2.792345 8.182963 97 94 105
-0.781479 -2.470931 7.850022 136 134 135
-0.774260 -2.422389 7.819186 134 132 135
-0.770217 -2.376434 7.811106 130 130 128
-0.771813 -2.273608 7.776451 111 99 99
-0.771781 -1.996495 7.791922 198 197 195
-0.770280 -1.818381 7.764524 77 71 73
-0.706585 -0.127815 7.165269 75 71 72
-0.721863 0.239943 7.271385 103 90 82
-0.718961 0.368663 7.287105 154 145 138
-0.725252 0.704956 7.338239 139 138 144
-0.720370 1.106396 7.304554 79 72 79
-0.699950 1.751062 7.087584 146 149 156
-0.694222 1.767495 7.060543 149 148 156
-0.675445 1.877316 6.851293 239 229 219
-0.662007 2.080711 6.692827 126 115 109
-0.767210 -2.402996 7.821385 87 86 92
-0.764749 -2.327110 7.801225 207 199 196
-0.757138 -2.191108 7.783642 138 128 127
-0.761045 -2.095168 7.810047 104 93 87
-0.709221 -0.826717 7.290648 70 66 67
-0.699036 -0.617161 7.166304 108 107 105
-0.691340 -0.528314 7.132124 58 53 59
-0.689467 -0.329224 7.135015 143 134 139
-0.713650 1.190453 7.291176 142 140 145
-0.699003 1.544976 7.188407 113 108 115
-0.700753 1.604135 7.179213 104 102 107
-0.697615 1.643249 7.168736 55 53 58
-0.671134 1.853581 6.916719 207 202 196
-0.666836 1.894828 6.854123 185 175 173
-0.645934 2.004573 6.712963 117 107 115
-0.787720 -2.823163 8.203247 105 98 106
-0.782280 -2.652152 8.160327 120 118 123
-0.754413 -2.202788 7.789825 141 133 130
-0.751581 -1.483647 7.900768 93 90 99
-0.689257 -0.304121 7.160885 130 125 131
-0.703795 0.615916 7.334126 127 118 121
-0.699319 0.793590 7.330892 127 115 125
-0.696661 1.028688 7.327743 159 155 156
-0.694615 1.366054 7.232112 82 83 85
-0.676885 1.772445 7.074982 160 159 165
-0.677496 1.779816 7.041379 147 149 161
-0.777365 -2.724789 8.200456 99 93 97
-0.697851 -0.968214 7.401320 132 129 138
-0.677458 -0.000526 7.184747 192 178 175
-0.685215 0.439826 7.298953 129 111 111
-0.687374 0.503286 7.308015 171 163 161
-0.690065 0.675602 7.333604 159 145 144
-0.685695 0.757355 7.330588 159 154 161
-0.694095 0.840984 7.342550 167 156 162
-0.674078 1.497549 7.189344 45 35 36
-0.671693 1.659414 7.155926 123 122 130
-0.628532 2.046311 6.715784 83 84 89
-0.771160 -2.633259 8.161736 53 49 48
-0.729683 -2.168866 7.853313 97 86 90
-0.727490 -2.102616 7.847680 62 55 49
-0.725994 -1.819389 7.794919 68 58 59
-0.730907 -1.717086 7.859879 66 60 62
-0.683952 -0.921654 7.393147 56 60 63
-0.681659 -0.808093 7.311831 138 136 141
-0.670634 -0.184427 7.205126 129 120 123
-0.672958 -0.111134 7.205144 76 70 72
-0.674305 0.038291 7.230991 146 141 138
-0.678856 0.169810 7.270246 132 128 125
-0.678884 1.165805 7.309984 153 148 154
-0.665654 1.294846 7.250668 95 90 96
-0.623065 2.125879 6.706654 95 90 97
-0.748204 -2.543905 8.142467 113 116 125
-0.712554 -1.894685 7.809618 155 137 125
-0.661576 -0.210291 7.228624 156 147 148
-0.665943 0.426910 7.303873 167 163 162
-0.674120 0.969900 7.335625 183 181 186
-0.660929 1.226184 7.282084 104 99 103
-0.656915 1.358573 7.226839 124 109 114
-0.616047 1.997907 6.758150 89 87 90
-0.721999 -1.568692 7.996188 94 89 95
-0.657215 -0.735289 7.298454 121 120 125
-0.650411 -0.389477 7.224224 83 79 80
-0.655295 0.098337 7.271083 86 76 75
-0.654007 0.701009 7.328129 138 138 138
-0.656246 1.122604 7.323992 134 129 133
-0.603611 2.205779 6.691558 125 124 129
-0.696072 -1.238927 7.887167 105 100 107
-0.688359 -1.151273 7.832395 119 119 127
-0.644619 -0.655807 7.264123 116 115 123
-0.642484 -0.349366 7.243958 155 145 146
-0.645901 0.410024 7.309661 141 141 141
-0.646470 0.904222 7.344811 131 126 132
-0.625230 1.710085 7.144432 83 78 84
-0.620128 1.862698 7.007506 128 128 138
-0.586154 2.157710 6.669148 125 122 131
-0.718753 -2.695714 8.230331 139 135 136
-0.709901 -2.631406 8.196427 21 21 21
-0.683555 -2.338186 7.812958 42 43 48
-0.682655 -1.959184 7.828120 177 171 175
-0.682806 -1.766677 7.847573 51 41 42
-0.680589 -1.204902 7.876066 98 95 106
-0.650203 -1.041171 7.464657 107 105 110
-0.645176 -0.884019 7.381589 54 55 60
-0.632970 -0.809881 7.310426 111 108 115
-0.629447 -0.539403 7.216542 127 125 128
-0.636633 -0.278792 7.259952 150 146 147
-0.630568 -0.113047 7.284300 134 128 130
-0.629739 -0.031757 7.281278 123 117 117
-0.633971 0.287562 7.304947 89 83 85
-0.638037 0.303394 7.295859 158 154 151
-0.636825 1.083986 7.337917 152 141 145
-0.637630 1.102569 7.337238 155 146 149
-0.582707 2.027364 6.731326 84 84 92
-0.666317 -1.920630 7.833538 157 143 134
-0.688579 -1.552609 8.043833 95 90 96
-0.623951 -0.697728 7.291389 119 117 122
-0.613187 -0.482706 7.249204 121 119 124
-0.625457 0.596579 7.335864 165 151 148
-0.609451 1.273492 7.245811 128 128 130
-0.616318 1.357287 7.223581 178 169 160
-0.608479 1.704805 7.155566 122 116 120
-0.574195 2.083278 6.719456 146 155 154
-0.693952 -2.785334 8.269437 131 125 137
-0.662090 -1.782326 7.851297 80 69 73
-0.673809 -1.694314 8.019968 99 90 93
-0.667989 -1.433227 7.988375 97 89 100
-0.614895 -0.336753 7.276196 132 123 126
-0.609450 -0.007091 7.289642 149 140 141
-0.611749 0.034458 7.291431 154 142 142
-0.609258 0.373978 7.302561 157 143 140
-0.610980 0.979427 7.338618 156 154 157
-0.616435 1.009551 7.348679 167 163 164
-0.604696 1.549717 7.176847 203 195 193
-0.601645 1.585395 7.181787 218 209 212
-0.564038 1.969550 6.801619 106 105 110
-0.653659 -2.182946 7.885290 81 75 77
-0.650690 -1.976224 7.848232 148 145 152
-0.638157 -1.030839 7.736888 108 106 119
-0.602774 -0.767462 7.307930 111 114 123
-0.602717 0.549237 7.330687 112 98 97
-0.606211 0.760719 7.343692 157 150 157
-0.602971 1.069622 7.341237 135 129 133
-0.579486 1.791743 7.100249 106 105 101
-0.576381 1.918644 7.010209 122 125 130
-0.669211 -2.757028 8.278530 144 143 148
-0.640572 -2.036562 7.859208 160 158 163
-0.631554 -1.896194 7.837200 128 111 95
-0.600454 -0.333970 7.316818 132 123 126
-0.591350 -0.245447 7.328182 133 129 130
-0.591701 -0.140523 7.321791 138 134 135
-0.597551 0.025156 7.305103 130 120 121
-0.591611 0.183308 7.311593 114 104 105
-0.593186 0.195849 7.304749 117 112 106
-0.593341 0.716461 7.340271 126 115 119
-0.592269 1.176371 7.299030 143 136 143
-0.588713 1.215105 7.264507 142 135 142
-0.585782 1.427872 7.199461 150 121 107
-0.582938 1.467170 7.196721 64 60 59
-0.581051 1.503022 7.186733 126 104 93
-0.542831 2.013368 6.746713 210 207 202
-0.650711 -2.611002 8.238271 86 84 97
-0.620746 -2.100766 7.877187 165 156 161
-0.626130 -1.210931 7.894554 120 113 121
-0.618152 -1.094508 7.784782 68 66 67
-0.579654 -0.068846 7.322195 147 138 139
-0.575803 0.417871 7.322077 141 131 139
-0.589782 0.769808 7.338255 183 178 184
-0.534197 2.062680 6.730191 100 88 90
-0.647463 -2.701470 8.284328 99 97 100
-0.637890 -2.432422 8.123061 73 72 78
-0.617154 -2.201888 7.909486 152 147 151
-0.612329 -1.823923 7.847240 78 61 54
-0.616573 -1.287383 7.937166 84 82 87
-0.596653 -0.994758 7.717151 88 82 92
-0.594360 -0.732220 7.557055 96 95 100
-0.582091 -0.595700 7.484939 134 126 124
-0.576923 -0.385637 7.379934 134 133 141
-0.568912 0.078980 7.322873 147 140 147
-0.568537 0.552698 7.333661 188 174 173
-0.578594 0.989569 7.343385 142 140 143
-0.634963 -2.846604 8.318499 160 154 156
-0.599628 -1.740158 7.950316 70 60 58
-0.586044 -0.972842 7.706164 78 78 88
-0.580066 -0.627629 7.505480 89 89 91
-0.560537 -0.040717 7.342204 137 128 131
-0.628171 -2.781672 8.309469 138 135 130
-0.599798 -2.302926 8.032400 140 141 145
-0.590996 -2.081574 7.891166 77 76 84
-0.600782 -1.576293 8.048410 54 49 55
-0.602152 -1.378101 7.983926 80 74 84
-0.550305 -0.298278 7.370877 127 123 124
-0.553630 -0.186713 7.353026 124 114 113
-0.551950 0.915567 7.359150 183 179 180
-0.543186 1.145403 7.314139 149 145 146
-0.543504 1.332700 7.216492 124 106 94
-0.499269 2.043720 6.727778 235 211 199
-0.557114 -0.685087 7.539571 136 137 142
-0.552438 -0.548272 7.479597 75 71 68
-0.542424 -0.058192 7.347488 152 143 148
-0.536676 0.074744 7.335252 117 110 117
-0.541732 0.427700 7.332254 154 146 143
-0.514614 1.899840 7.117342 79 80 84
-0.591995 -2.532413 8.197989 118 118 118
-0.588920 -2.440634 8.132134 120 119 125
-0.580857 -2.283534 8.040176 124 119 125
-0.572952 -2.217620 7.990860 47 41 53
-0.559223 -0.832958 7.658266 62 58 59
-0.529338 0.016237 7.353753 166 153 147
-0.523230 0.130232 7.333660 131 127 126
-0.531697 0.539228 7.342461 174 164 162
-0.533884 0.628812 7.339799 176 162 159
-0.531369 1.060541 7.361908 182 173 174
-0.515250 1.407561 7.199484 235 216 212
-0.509519 1.730535 7.160976 120 117 124
-0.501835 1.938338 7.050095 72 80 83
-0.476798 2.039118 6.761822 239 214 194
-0.590691 -2.844991 8.328846 105 97 94
-0.565599 -2.150666 7.950149 116 116 124
-0.553623 -1.933210 7.852706 137 131 133
-0.558737 -1.779820 7.905232 130 116 113
-0.557899 -1.694780 7.953063 74 64 65
-0.543990 -1.066967 7.764173 82 77 83
-0.539978 -0.900824 7.686518 98 97 103
-0.521690 0.225457 7.337899 187 177 176
-0.517453 0.326205 7.332876 179 169 170
-0.506360 1.167646 7.298812 123 117 121
-0.503856 1.632351 7.178353 107 101 105
-0.482376 1.983781 6.910934 121 122 127
-0.546544 -1.657350 8.007154 74 69 66
-0.546414 -1.419454 7.995574 41 36 40
-0.542656 -1.299242 7.942494 133 129 130
-0.536645 -0.975239 7.718943 114 113 121
-0.534422 -0.917769 7.701050 88 86 91
-0.512842 -0.635758 7.517663 126 126 136
-0.515923 -0.564381 7.494295 98 90 88
-0.511197 -0.447134 7.462266 107 107 109
-0.515578 -0.396792 7.441962 183 181 182
-0.498499 0.153781 7.355732 134 125 128
-0.507980 0.707935 7.345684 197 193 192
-0.501278 0.751355 7.345377 209 200 195
-0.502681 0.881569 7.350332 153 151 152
-0.500484 1.253273 7.241579 229 224 220
-0.484191 1.534366 7.178967 53 43 41
-0.490799 1.770726 7.162045 96 91 97
-0.562288 -2.776036 8.313352 99 95 94
-0.554861 -2.638187 8.250188 98 95 102
-0.544963 -2.392664 8.101401 141 140 148
-0.544625 -2.264228 8.039995 181 166 147
-0.536534 -1.562149 8.032619 56 51 57
-0.537723 -1.515353 8.030057 94 89 96
-0.536291 -1.390198 7.983188 127 121 131
-0.504150 -0.367901 7.426694 126 119 127
-0.499790 -0.302439 7.403749 110 104 106
-0.493986 -0.221067 7.380237 151 149 150
-0.498068 -0.136409 7.375426 174 165 168
-0.494092 -0.018210 7.362237 142 131 129
-0.478826 1.328779 7.212882 199 179 172
-0.472600 1.936650 7.057387 107 107 119
-0.470790 1.961381 7.000032 84 85 90
-0.455306 2.078894 6.766560 214 186 174
-0.552080 -2.726059 8.299005 85 80 86
-0.534921 -2.570680 8.215103 75 72 79
-0.496373 -0.861959 7.678474 145 140 144
-0.494751 -0.503508 7.489384 140 138 143
-0.487338 -0.113993 7.373518 91 89 94
-0.483711 0.469257 7.347316 143 137 137
-0.479365 0.840031 7.345809 138 133 137
-0.475592 1.519258 7.177146 83 65 63
-0.468626 1.756521 7.171564 83 82 90
-0.450168 2.030730 6.841035 127 124 115
-0.507989 -2.046805 7.911234 138 133 130
-0.512392 -2.018472 7.885899 130 129 125
-0.522249 -1.500999 8.022873 108 106 111
-0.511287 -1.329887 7.946926 124 120 117
-0.486326 -0.616655 7.529476 138 137 142
-0.484724 -0.407944 7.464064 109 107 110
-0.475397 0.285480 7.345699 167 165 168
-0.467382 1.002010 7.357136 137 135 138
-0.458259 1.373731 7.203804 199 182 164
-0.466363 1.451022 7.188566 107 92 89
-0.461591 1.677060 7.184806 81 77 78
-0.433461 2.157737 6.740296 184 170 157
-0.525398 -2.645237 8.258638 140 135 139
-0.515927 -2.426325 8.127574 102 101 109
-0.513787 -2.276910 8.057272 112 106 108
-0.492861 -1.835781 7.878658 137 129 127
-0.498140 -1.192659 7.880363 100 100 108
-0.469654 -0.114639 7.378111 139 134 140
-0.461784 0.058414 7.365933 164 154 153
-0.462617 0.973381 7.358595 164 160 161
-0.438557 1.930185 7.110384 185 195 196
-0.508409 -2.879467 8.338170 119 109 107
-0.484957 -1.603294 7.937427 53 43 42
-0.486325 -1.557372 7.965590 63 58 64
-0.487787 -1.543689 7.981368 76 71 77
-0.485828 -1.435174 7.971136 114 114 126
-0.467815 -1.022587 7.745428 66 63 70
-0.451129 -0.229416 7.403895 140 138 141
-0.447295 0.508870 7.334167 189 177 179
-0.444482 1.150101 7.305295 128 122 126
-0.443478 1.766969 7.201404 110 112 124
-0.422953 1.992620 6.982192 92 91 97
-0.494552 -2.830944 8.324213 55 49 51
-0.500685 -2.600842 8.224068 95 93 96
-0.477145 -2.166141 7.986514 70 64 68
-0.482386 -1.420999 7.963576 133 133 143
-0.459850 -0.870479 7.673931 122 116 118
-0.458138 -0.804216 7.648856 135 132 143
-0.448786 -0.718581 7.603545 154 153 159
-0.443028 -0.278392 7.421488 149 145 146
-0.446292 -0.086529 7.384312 97 91 93
-0.439413 0.328739 7.347379 135 125 123
-0.438998 0.689138 7.333227 135 129 129
-0.432928 1.113662 7.337846 115 101 101
-0.427824 1.514429 7.179044 128 119 120
-0.434307 1.732366 7.202546 120 118 123
-0.405720 2.042278 6.874513 137 134 119
-0.483250 -2.503435 8.167638 122 115 122
-0.475483 -2.406810 8.119255 161 159 160
-0.460957 -1.864031 7.873767 132 122 123
-0.464029 -1.484971 7.982600 43 41 46
-0.439193 -0.551069 7.516813 114 104 113
-0.424108 0.143302 7.364919 140 142 139
-0.424431 1.312180 7.215989 205 182 168
-0.420338 1.345644 7.209650 86 72 69
-0.409004 1.427085 7.192217 148 143 140
-0.390638 2.097455 6.794178 238 214 202
-0.468817 -2.734247 8.289183 186 181 187
-0.475699 -2.650583 8.256925 86 83 90
-0.455061 -2.212564 8.027340 188 178 168
-0.449524 -1.560291 7.916000 75 69 73
-0.444924 -0.970849 7.719435 106 101 107
-0.418384 -0.030202 7.384943 204 199 196
-0.418864 0.123595 7.368013 138 125 132
-0.412333 0.526125 7.330317 159 148 144
-0.416041 0.649840 7.330036 140 134 134
-0.423203 1.045932 7.359044 137 122 125
-0.408539 1.374143 7.205290 98 101 110
-0.396209 1.954020 7.036295 206 203 210
-0.377684 2.165799 6.722486 255 235 211
-0.447406 -2.328550 8.084878 175 169 173
-0.440078 -2.133770 7.970436 112 105 99
-0.443765 -1.924826 7.873695 160 155 161
-0.437316 -1.728309 7.887036 50 42 40
-0.443258 -1.687672 7.905343 138 130 128
-0.440392 -1.520295 7.945216 67 63 62
-0.438462 -1.388493 7.932862 97 95 98
-0.431309 -0.750696 7.619322 131 130 136
-0.410645 -0.469210 7.484948 114 104 102
-0.405222 0.023879 7.377430 118 109 100
-0.397794 0.463435 7.345633 145 140 144
-0.406170 0.903401 7.351666 143 132 136
-0.405609 0.987884 7.348962 157 146 152
-0.402616 1.235282 7.247134 214 206 185
-0.390473 1.765614 7.218235 129 128 136
-0.388981 1.827578 7.190493 133 132 138
-0.379662 2.034757 6.924042 189 186 177
-0.433639 -2.389223 8.117221 100 92 90
-0.426995 -1.962671 7.880142 106 98 96
-0.424258 -1.817760 7.882848 128 118 109
-0.433500 -1.571395 7.902714 67 57 58
-0.405843 -0.247449 7.428603 145 143 144
-0.396220 0.246453 7.356504 159 153 155
-0.388608 0.783051 7.338978 117 107 106
-0.395728 0.975085 7.350815 176 165 171
-0.391005 1.106716 7.335775 128 124 123
-0.386307 1.553239 7.192594 47 35 37
-0.381341 1.624797 7.191251 58 49 50
-0.389171 1.690533 7.209571 122 116 126
-0.366104 2.100561 6.844906 231 211 187
-0.427545 -2.831195 8.323724 91 85 89
-0.439534 -2.807259 8.317832 105 96 101
-0.436770 -2.742877 8.297254 116 109 116
-0.413722 -2.093532 7.960112 191 182 183
-0.413203 -1.107428 7.789786 66 61 65
-0.404949 -0.945171 7.698486 146 141 148
-0.398789 -0.867408 7.660464 60 54 54
-0.400904 -0.565937 7.528708 117 108 113
-0.388932 -0.114262 7.413017 136 128 125
-0.388011 0.081482 7.374307 139 129 127
-0.353286 2.155570 6.727146 170 138 127
-0.353242 2.219008 6.707233 130 127 122
-0.426486 -2.717838 8.279227 97 92 96
-0.412068 -2.436868 8.142721 111 111 113
-0.406850 -1.384345 7.911188 92 88 87
-0.399751 -1.193545 7.827178 81 73 71
-0.370298 0.526865 7.328683 105 100 96
-0.370901 1.123376 7.327449 151 140 144
-0.369821 1.752860 7.216776 126 121 127
-0.400488 -2.085415 7.959650 164 157 149
-0.387761 -1.968830 7.892219 116 114 117
-0.386086 -1.667341 7.894068 114 99 94
-0.372080 -0.720562 7.599935 121 119 122
-0.370117 -0.708508 7.596528 124 119 126
-0.363063 0.151367 7.372725 155 150 154
-0.360488 0.213930 7.358900 193 187 187
-0.361971 0.350082 7.348689 146 139 146
-0.364681 0.898962 7.353906 160 150 149
-0.350324 1.284005 7.234030 162 147 144
-0.350801 1.830330 7.186463 163 162 168
-0.336372 2.192507 6.712221 197 179 167
-0.390332 -2.531809 8.189808 111 110 116
-0.381467 -1.984300 7.904456 116 115 121
-0.375082 -1.750053 7.880181 184 185 189
-0.364064 -0.436500 7.490105 86 83 78
-0.353993 -0.175767 7.422320 129 130 134
-0.354085 0.412877 7.351377 126 117 118
-0.353477 0.444604 7.348325 159 159 159
-0.352220 0.590196 7.334272 136 124 126
-0.342575 1.239846 7.252128 116 114 115
-0.344654 1.486591 7.196325 96 95 100
-0.337344 1.886942 7.153970 108 107 105
-0.322878 2.121607 6.801455 95 73 59
-0.381541 -2.821625 8.307006 51 42 43
-0.375443 -2.088326 7.972756 52 48 45
-0.366478 -1.340271 7.787164 126 120 120
-0.363713 -1.271675 7.768465 69 63 67
-0.343226 -0.273776 7.444955 100 91 92
-0.329840 1.627390 7.194020 83 63 65
-0.334534 1.895201 7.154753 108 108 106
-0.322588 2.034644 7.028092 197 187 177
-0.361936 -2.682647 8.269114 151 146 153
-0.359977 -2.355989 8.113625 153 136 129
-0.355258 -1.737996 7.885172 125 124 129
-0.347835 -1.431209 7.801257 103 93 94
-0.346379 -1.063627 7.708396 98 88 89
-0.333429 0.083727 7.385489 165 156 157
-0.326320 0.308246 7.348888 170 164 164
-0.321859 1.407205 7.216838 121 116 122
-0.320683 1.586172 7.199035 119 104 109
-0.312844 2.001168 7.042359 39 33 21
-0.309122 2.050383 6.925864 102 97 78
-0.303309 2.084698 6.879770 184 150 125
-0.354847 -2.726369 8.279542 119 113 125
-0.354244 -2.189974 8.040261 84 73 81
-0.343511 -1.919397 7.898380 90 87 94
-0.326084 0.213743 7.359565 170 162 159
-0.321076 0.790746 7.348039 192 188 187
-0.311292 0.971025 7.346867 174 164 165
-0.314197 1.055506 7.344771 197 189 186
-0.308047 1.208035 7.290445 238 215 199
-0.337587 -2.051210 7.959383 91 89 94
-0.317523 -0.635614 7.553421 143 138 135
-0.306908 -0.203243 7.431556 77 71 71
-0.299145 1.165359 7.308549 163 164 168
-0.294528 1.536152 7.202743 242 230 230
-0.319154 -2.274314 8.080669 130 117 109
-0.310790 -0.822809 7.609757 172 167 164
-0.299152 0.022514 7.392348 138 134 135
-0.293648 0.340747 7.347803 150 144 148
-0.290621 0.453647 7.343812 191 180 186
-0.292668 1.447543 7.218572 116 111 115
-0.280446 1.954695 7.079894 209 186 178
-0.322565 -2.564182 8.208195 224 219 190
-0.321129 -2.449068 8.156744 109 89 88
-0.312157 -2.065350 7.976112 118 116 121
-0.312997 -1.644488 7.880206 120 106 97
-0.305788 -1.468314 7.792401 110 107 114
-0.299486 -1.074092 7.654548 169 169 171
-0.300755 -0.687376 7.565766 77 68 71
-0.290948 -0.118822 7.422728 77 71 71
-0.289806 0.528871 7.336480 171 160 164
-0.281605 1.682959 7.204663 144 143 139
-0.259768 2.059268 6.876422 97 74 60
-0.315138 -2.766634 8.302928 124 114 125
-0.316356 -2.644706 8.246548 96 92 89
-0.294530 -1.867769 7.889305 132 126 130
-0.292155 -1.357586 7.743210 214 203 199
-0.290046 -1.199089 7.691585 192 174 164
-0.280265 -0.386120 7.474359 142 129 123
-0.280411 0.090051 7.382703 152 147 151
-0.278405 0.579378 7.332371 161 153 151
-0.272797 0.615881 7.328695 133 127 131
-0.272794 0.639625 7.328335 170 161 164
-0.272852 0.740334 7.335601 129 120 121
-0.277190 1.076845 7.335072 160 148 150
-0.273686 1.275066 7.297761 186 176 177
-0.246283 2.144546 6.776202 142 115 98
-0.285385 -1.991317 7.921671 117 113 112
-0.279274 -1.736213 7.879479 129 125 126
-0.281127 -1.407015 7.765024 139 126 117
-0.269944 -0.348484 7.468603 150 144 144
-0.271224 -0.023546 7.402886 139 131 129
-0.266474 0.943560 7.344723 141 130 124
-0.256258 1.296799 7.293073 175 156 152
-0.245016 2.034178 6.997649 146 126 119
-0.291634 -2.851854 8.336010 137 133 134
-0.282729 -2.759775 8.298944 136 129 136
-0.278730 -2.386412 8.129353 57 54 61
-0.274753 -2.021924 7.944802 122 114 111
-0.277702 -1.969136 7.917078 203 193 192
-0.256382 -0.933874 7.601142 175 171 172
-0.254116 -0.550729 7.523876 131 129 134
-0.259424 -0.088717 7.425022 147 146 152
-0.256762 0.315455 7.365959 117 107 108
-0.253711 0.654008 7.329031 146 134 134
-0.251450 1.176838 7.314874 227 221 209
-0.240152 1.921809 7.101324 186 163 149
-0.238876 1.956075 7.055384 187 183 172
-0.278023 -2.788958 8.321240 113 104 105
-0.256957 -2.148538 8.015756 179 178 176
-0.256956 -2.055522 7.966536 129 124 121
-0.266719 -1.545315 7.841142 99 96 105
-0.237436 0.865961 7.338809 184 174 173
-0.238138 1.551095 7.219491 111 99 99
-0.236701 1.661371 7.204600 83 77 77
-0.239523 1.794944 7.196081 94 77 83
-0.263393 -2.563095 8.211127 233 220 212
-0.253636 -1.855286 7.890531 91 83 81
-0.240509 -1.192447 7.667418 205 184 167
-0.239622 -1.122089 7.639374 141 121 110
-0.235334 -0.462337 7.489176 126 124 129
-0.239043 -0.305700 7.464039 157 155 156
-0.234193 0.453787 7.344603 197 182 185
-0.225149 0.595545 7.327827 164 154 155
-0.229385 0.737640 7.335597 162 151 147
-0.226326 0.824652 7.336988 165 159 161
-0.227586 0.901349 7.341039 168 155 147
-0.230901 1.387863 7.269161 210 193 185
-0.238399 -1.352660 7.730232 133 119 108
-0.225298 -0.823845 7.565116 161 156 160
-0.218984 -0.108088 7.427446 163 152 158
-0.223852 0.012052 7.409427 154 149 153
-0.222379 0.143524 7.382063 176 170 172
-0.217240 0.790514 7.334206 165 155 156
-0.215754 1.056376 7.336690 155 145 153
-0.202751 1.997286 7.017874 150 122 118
-0.234236 -2.464840 8.174442 169 162 156
-0.233362 -2.362832 8.131075 148 136 136
-0.226929 -2.158325 8.010890 208 207 203
-0.228115 -2.102709 7.992724 100 96 97
-0.226421 -1.313851 7.713554 72 55 48
-0.212138 -1.012259 7.607657 149 145 136
-0.216005 -0.692728 7.535881 104 94 95
-0.209746 0.234216 7.370842 169 168 166
-0.205842 0.588096 7.331386 142 136 136
-0.209702 0.702643 7.340496 140 135 139
-0.213498 0.893661 7.345049 139 125 116
-0.204816 1.588608 7.217221 149 144 150
-0.197938 1.951672 7.068346 255 230 212
-0.186306 2.202251 6.731071 149 136 128
-0.231631 -2.865965 8.356547 120 119 127
-0.218933 -2.383869 8.137950 135 135 137
-0.206702 -1.257013 7.684594 175 160 153
-0.201581 -1.111181 7.627218 245 225 214
-0.204934 -0.923952 7.577130 130 126 127
-0.200011 -0.863818 7.560133 179 173 175
-0.196493 -0.520507 7.509480 203 190 184
-0.208028 -0.460517 7.493338 108 103 110
-0.192034 0.985990 7.340097 155 149 153
-0.194178 1.694960 7.213373 105 98 105
-0.193019 1.770659 7.203043 177 172 178
-0.185701 2.149027 6.816326 209 199 187
-0.207751 -2.804389 8.337813 141 138 145
-0.210038 -2.664008 8.270123 140 138 125
-0.204434 -2.066720 7.983758 103 98 95
-0.204358 -1.780482 7.880321 116 98 94
-0.199160 -1.650291 7.876516 73 69 68
-0.197671 -1.493984 7.783321 193 190 181
-0.196321 -1.433268 7.752786 176 165 163
-0.183663 0.367607 7.360437 159 153 153
-0.184580 1.157951 7.323312 163 152 160
-0.184812 1.659629 7.213826 79 70 75
-0.178354 1.842220 7.145952 86 85 93
-0.179135 1.902003 7.112815 202 195 179
-0.169747 1.953579 7.071104 124 120 111
-0.166490 2.063242 6.969259 65 51 38
-0.205851 -2.382589 8.140141 116 110 112
-0.192312 -2.334429 8.111943 181 164 156
-0.184891 -0.402325 7.482579 151 143 141
-0.181685 -0.357128 7.475020 168 161 155
-0.179788 -0.219932 7.459062 180 171 172
-0.168350 0.541326 7.336443 164 155 158
-0.169346 0.849499 7.347820 150 144 146
-0.172705 1.240735 7.311481 148 141 148
-0.168135 1.362745 7.282672 126 118 115
-0.162379 2.001300 7.037970 159 145 132
-0.180794 -2.543095 8.223963 135 125 124
-0.184586 -2.479117 8.204070 58 50 47
-0.185987 -2.296600 8.099910 127 121 123
-0.185853 -2.201551 8.046057 173 159 158
-0.180662 -1.862957 7.895842 64 61 56
-0.184212 -1.701460 7.879304 100 81 85
-0.177581 -1.321872 7.702416 70 61 64
-0.165772 -0.704690 7.526554 179 161 151
-0.167786 -0.445992 7.493483 195 187 184
-0.168334 0.787094 7.342737 151 147 144
-0.164392 1.502081 7.256001 106 107 111
-0.155144 1.574309 7.235260 17 17 17
-0.159528 1.634026 7.221567 132 135 142
-0.175258 -2.780738 8.331255 233 223 214
-0.174265 -2.034770 7.957644 113 103 101
-0.156815 -1.211491 7.657249 129 111 109
-0.155948 -0.742616 7.530487 207 189 177
-0.148407 0.338715 7.364740 156 155 153
-0.155098 0.909393 7.349388 163 154 157
-0.150074 1.364948 7.285628 206 189 179
-0.150239 1.408681 7.279234 146 129 122
-0.146057 1.789872 7.190572 121 119 124
-0.143036 1.905243 7.101901 149 146 137
-0.152204 -1.968482 7.929737 168 157 151
-0.148660 -1.253888 7.667411 161 150 144
-0.146295 -1.130183 7.623259 194 182 184
-0.146041 -0.988382 7.575669 111 94 84
-0.151895 -0.672858 7.522072 176 167 168
-0.145118 -0.551706 7.509651 127 110 100
-0.142504 -0.084798 7.429509 133 124 125
-0.144784 -0.016259 7.418570 183 174 177
-0.140265 0.029705 7.411289 138 136 139
-0.146627 0.170422 7.385128 170 160 161
-0.141532 0.479532 7.347127 160 148 148
-0.135277 0.673041 7.330565 198 196 197
-0.136356 0.992634 7.339868 145 139 141
-0.144584 1.305071 7.298360 200 189 193
-0.139694 1.941896 7.090388 181 164 156
