ply
format ascii 1.0
element vertex 1251
property float x
property float y
property float z
property uchar red
property uchar green
property uchar blue
end_header
1.522766 0.646775 7.212160 247 231 218
1.521150 0.726930 7.203328 166 153 137
1.485993 1.089895 7.051995 173 134 137
1.462015 1.452340 6.916942 118 98 107
1.695408 -2.506656 7.980298 130 128 131
1.686927 -2.011545 7.921591 85 86 81
1.673218 -1.391443 7.827650 78 74 75
1.734284 -0.791816 8.130842 83 77 81
1.579782 0.263912 7.444234 129 137 126
1.463457 1.643370 6.875844 142 136 136
1.454121 1.917915 6.841128 200 195 199
1.455388 1.984974 6.833948 175 170 176
1.667886 -2.133909 7.805785 60 51 56
1.701991 -1.862541 7.917018 115 109 109
1.678230 -1.361209 7.832231 84 80 81
1.746576 -0.607401 8.166032 67 62 66
1.669358 -0.077670 7.755898 55 56 58
1.642326 0.080514 7.657448 92 92 92
1.550428 0.540792 7.227986 65 46 42
1.539585 0.798849 7.173773 222 204 192
1.523419 0.927178 7.116223 139 147 134
1.479660 1.576880 6.897490 71 65 69
1.467606 1.726779 6.860849 105 96 97
1.471142 1.815255 6.847781 134 133 129
1.720886 -2.251724 7.953513 130 128 133
1.700546 -1.804629 7.901332 127 122 118
1.693076 -1.685356 7.854009 68 69 73
1.686630 -1.580546 7.817068 168 151 143
1.755462 -0.536674 8.148273 139 135 136
1.748650 -0.328006 8.057126 104 102 105
1.671819 -0.033091 7.722548 134 135 140
1.630607 0.192707 7.541409 157 144 136
1.587446 0.351935 7.362861 208 178 176
1.555131 0.620904 7.193067 209 188 171
1.554828 0.634925 7.189676 154 132 119
1.501707 1.311767 6.955691 102 97 101
1.505955 1.323486 6.946375 152 146 146
1.728656 -2.376346 7.971402 76 75 80
1.714097 -2.104578 7.887149 107 103 104
1.712082 -1.910430 7.921589 118 101 85
1.772919 -0.789201 8.142412 53 42 46
1.681293 -0.079124 7.752752 115 116 120
1.532537 1.171063 7.037294 65 57 55
1.493264 1.618897 6.873091 120 122 121
1.494345 1.667245 6.864729 114 109 105
1.491401 1.687453 6.861425 96 70 69
1.488615 1.756654 6.851285 74 57 65
1.479891 2.038451 6.795069 160 158 169
1.494790 2.117406 6.820989 190 191 195
1.474224 2.167530 6.767662 208 176 179
1.751378 -2.600785 8.012858 75 70 64
1.751133 -2.545557 8.019534 91 85 85
1.718738 -2.132459 7.883420 121 120 126
1.719884 -1.765902 7.871947 125 120 124
1.709060 -1.567726 7.812430 196 176 167
1.714396 -1.520711 7.807834 119 117 120
1.698842 -0.997881 7.736235 11 2 3
1.693447 -0.896595 7.737606 112 80 55
1.783027 -0.811089 8.130721 79 70 65
1.784040 -0.763392 8.144095 82 72 73
1.780228 -0.478406 8.118668 141 135 137
1.770694 -0.398519 8.086891 81 80 78
1.739957 -0.191412 7.902797 84 85 89
1.533191 1.264145 6.988263 136 121 116
1.779155 -2.340085 8.027143 102 99 94
1.787085 -0.536547 8.133969 121 113 124
1.584133 0.681790 7.161352 120 119 114
1.527789 1.509308 6.892482 90 79 77
1.513219 1.806393 6.852169 148 131 137
1.517860 1.915236 6.868639 202 184 174
1.725702 -1.357159 7.802178 165 161 160
1.713468 -0.893956 7.748455 150 122 98
1.805965 -0.792657 8.134491 94 85 80
1.812991 -0.662227 8.146252 97 92 89
1.675928 0.173070 7.524279 237 216 211
1.634820 0.318585 7.372441 139 114 109
1.608914 0.451020 7.253507 119 99 90
1.595172 0.609764 7.176363 179 160 154
1.583406 0.868360 7.114511 161 151 149
1.555634 1.118723 7.028038 215 192 176
1.519375 1.888811 6.857355 219 202 192
1.524096 1.988145 6.868276 184 180 181
1.773382 -1.995068 7.929000 121 121 129
1.741312 -1.425945 7.799482 140 133 140
1.816661 -0.592008 8.139376 111 109 114
1.671101 0.198779 7.489729 74 70 71
1.649282 0.287669 7.392776 229 217 205
1.596478 0.806058 7.121988 171 140 119
1.568464 1.202448 7.015145 165 145 138
1.553692 1.298852 6.937544 180 169 163
1.548173 1.359713 6.914522 149 136 128
1.542260 1.448405 6.899080 192 181 179
1.543209 1.539822 6.879642 125 124 122
1.536294 1.627275 6.858184 180 174 176
1.516812 2.181228 6.771932 142 132 122
1.811947 -2.278094 8.042116 122 118 119
1.808365 -2.255653 8.046460 110 104 104
1.802108 -2.194233 8.010531 107 101 101
1.759800 -1.670343 7.827306 80 74 74
1.749570 -1.218118 7.769257 122 110 112
1.737159 -1.119300 7.742198 116 114 117
1.740022 -1.002397 7.746531 108 109 113
1.814826 -0.489346 8.098504 93 88 94
1.667126 0.260521 7.411788 160 159 155
1.640809 0.406046 7.271550 132 117 112
1.610110 0.720929 7.138004 110 96 85
1.547513 1.579345 6.871475 77 66 60
1.550864 1.718468 6.853325 156 138 136
1.529179 2.157929 6.791800 89 74 69
1.808861 -2.604492 8.009275 122 118 115
1.812389 -2.478785 7.991828 63 56 63
1.823184 -2.329530 8.047318 60 56 57
1.760781 -1.473551 7.792107 76 62 53
1.758566 -1.196375 7.756656 71 67 66
1.848300 -0.714727 8.142002 109 103 105
1.816678 -0.347502 8.017194 135 130 136
1.774575 -0.167552 7.809796 170 169 175
1.743518 -0.060840 7.678938 136 128 125
1.711900 0.090269 7.560694 70 54 55
1.618636 0.618208 7.165642 164 145 139
1.553692 1.673164 6.849795 165 134 129
1.554273 1.748174 6.845901 189 164 160
1.554718 2.111975 6.834809 162 160 163
1.833681 -2.114368 8.036180 80 75 82
1.836215 -2.090349 8.042456 43 42 40
1.820341 -0.318297 7.990709 121 117 118
1.812831 -0.272261 7.966360 75 74 82
1.735257 0.045370 7.589598 161 148 142
1.617697 0.928282 7.070200 68 55 64
1.596310 1.029386 6.989615 147 123 111
1.577591 1.310151 6.929547 168 149 143
1.569541 1.553568 6.866100 217 197 188
1.563470 1.826863 6.847718 124 123 119
1.788745 -1.627085 7.811658 100 96 93
1.773940 -0.922975 7.720315 117 97 86
1.862109 -0.713813 8.139144 84 79 83
1.854095 -0.551966 8.107963 117 113 110
1.722214 0.160264 7.490607 229 220 213
1.569490 2.044691 6.832351 179 181 180
1.572229 2.155512 6.813607 125 112 119
1.801070 -1.579944 7.803499 90 81 76
1.793863 -1.324704 7.772838 157 147 146
1.790384 -1.286945 7.769707 79 72 66
1.782854 -1.117174 7.737698 6 5 10
1.853051 -0.409373 8.044076 41 39 40
1.685869 0.394744 7.257918 168 148 137
1.663890 0.546478 7.185476 197 178 174
1.653145 0.665634 7.137383 144 127 119
1.614403 1.196834 6.985487 87 82 78
1.590294 1.541425 6.866582 153 140 134
1.845096 -2.617450 7.987788 92 77 72
1.832991 -1.739095 7.870173 170 170 180
1.802727 -1.241327 7.754186 100 89 87
1.800997 -0.975994 7.741833 99 89 97
1.871145 -0.848125 8.073784 156 134 120
1.875484 -0.491996 8.064211 150 147 142
1.799680 -0.148940 7.743617 164 162 167
1.774584 -0.035800 7.630575 106 99 93
1.623534 1.052376 6.980398 185 163 152
1.605183 1.408490 6.888940 91 73 71
1.594132 1.657137 6.851091 116 121 115
1.590856 1.757748 6.848716 63 47 47
1.880650 -2.533782 8.018510 63 54 49
1.875783 -2.253404 8.016880 60 52 49
1.849504 -1.834805 7.901783 96 94 97
1.805112 -1.279812 7.756525 127 119 117
1.894675 -0.669184 8.119008 150 145 152
1.871752 -0.368892 7.994497 94 92 97
1.822505 -0.212068 7.800799 82 82 82
1.715741 0.315135 7.339585 206 182 178
1.682551 0.453285 7.234039 108 87 84
1.628254 1.250888 6.952237 232 222 212
1.610271 1.842803 6.846470 120 102 100
1.880896 -2.077856 8.023618 103 101 104
1.913729 -0.717397 8.106107 84 83 88
1.795195 -0.060881 7.640959 107 95 95
1.731941 0.252172 7.370559 78 70 68
1.705512 0.417670 7.241264 176 153 147
1.683136 0.628570 7.135243 119 100 104
1.660749 0.941741 7.069969 192 185 179
1.626642 1.327256 6.902959 172 156 156
1.631361 1.454129 6.883218 133 122 116
1.599781 2.192254 6.798461 160 161 165
1.886023 -2.326677 8.015056 147 145 150
1.839678 -1.423394 7.765061 214 211 206
1.842075 -1.094186 7.779527 123 121 124
1.904686 -0.472428 8.043894 50 40 38
1.897521 -0.409546 8.017922 117 115 116
1.797063 0.049458 7.553651 223 205 201
1.611789 2.154677 6.789416 115 114 112
1.900913 -2.625842 7.998741 71 61 52
1.914756 -2.047513 8.037395 136 131 135
1.829122 -0.112371 7.668672 187 161 148
1.699552 0.644767 7.118652 160 158 163
1.687360 0.840228 7.084024 115 92 84
1.688314 0.887913 7.068992 73 69 70
1.652555 1.210780 6.944223 74 58 58
1.642063 1.444429 6.877718 222 202 195
1.635724 1.568567 6.845017 142 139 132
1.632833 1.626560 6.847182 124 116 105
1.922294 -2.539273 7.996433 90 90 82
1.917300 -2.443591 7.989027 131 121 129
1.917263 -2.381419 7.979795 157 156 164
1.928486 -2.151122 8.043034 72 72 74
1.930976 -2.130501 8.046332 109 105 102
1.898956 -1.812396 7.901849 111 107 106
1.891577 -1.772840 7.890221 140 138 141
1.871612 -1.566465 7.785973 174 168 170
1.864455 -1.477738 7.762318 96 85 89
1.863414 -1.092878 7.771220 146 144 145
1.858258 -1.025187 7.747026 165 171 167
1.864526 -0.895744 7.760048 76 60 37
1.772357 0.192213 7.370269 126 112 111
1.729769 0.574680 7.199327 162 150 152
1.648079 1.684201 6.840817 142 132 130
1.650151 1.800356 6.857563 83 75 73
1.643993 1.948650 6.845648 235 231 220
1.634569 2.043211 6.816755 236 219 209
1.931605 -2.282350 8.007891 139 130 121
1.934522 -2.199099 8.031391 30 19 15
1.944042 -2.030639 8.031986 49 45 42
1.866337 -1.321668 7.736071 169 153 154
1.938663 -0.505112 8.026624 98 89 90
1.881422 -0.252348 7.770127 191 177 164
1.678879 1.006601 6.966549 219 198 193
1.673356 1.146200 6.939677 152 131 114
1.675914 1.237575 6.927642 124 109 114
1.661099 1.305637 6.903673 95 70 66
1.657378 1.878339 6.838516 158 148 147
1.948327 -1.985023 8.018449 58 59 61
1.943378 -1.899806 7.989176 109 107 110
1.904123 -1.722258 7.860363 159 159 161
1.883976 -1.171627 7.759915 89 87 92
1.878666 -1.058985 7.769577 68 64 65
1.951589 -0.619547 8.060080 75 76 80
1.905100 -0.319234 7.847892 160 151 152
1.846278 -0.033354 7.591012 152 133 126
1.716295 0.931198 7.056174 82 72 73
1.670755 1.485438 6.853014 99 83 86
1.948173 -2.471430 7.981071 159 156 147
1.949066 -2.411362 7.964714 61 58 53
1.885457 -1.388277 7.741939 155 140 137
1.896798 -1.092237 7.764895 154 143 141
1.887284 -1.021207 7.746881 176 162 161
1.896030 -0.991492 7.746491 106 96 94
1.891312 -0.255111 7.755130 135 121 112
1.827014 0.087447 7.456285 145 127 115
1.730723 0.805128 7.068376 222 197 193
1.697508 1.234255 6.921796 141 137 138
1.683965 1.349436 6.895647 196 193 186
1.671566 1.685501 6.839391 71 66 70
1.965467 -2.222487 7.985492 172 158 149
1.969852 -2.166066 8.019206 59 55 54
1.969009 -2.066924 8.011304 138 132 132
1.971245 -2.041321 8.011599 74 72 73
1.945800 -1.773821 7.896199 121 112 113
1.925121 -1.666085 7.837463 111 111 111
1.917358 -1.619682 7.811491 116 106 104
1.911570 -1.520497 7.764254 183 179 180
1.987648 -0.791149 8.046258 92 73 59
1.980114 -0.720050 8.041710 38 40 39
1.862871 -0.064990 7.594027 224 216 193
1.858161 -0.016361 7.554449 122 124 113
1.789488 0.348698 7.258252 77 66 62
1.789132 0.458625 7.250652 94 90 91
1.764781 0.598648 7.186036 81 76 73
1.744318 0.727815 7.089714 253 253 243
1.674771 2.052877 6.813645 172 150 137
1.673208 2.176591 6.801034 141 136 140
1.912358 -1.359387 7.719430 140 120 109
1.915964 -0.966737 7.752327 94 79 72
1.985697 -0.683381 8.045895 73 70 63
1.794725 0.416658 7.251400 62 52 50
1.783896 0.532762 7.235050 149 139 137
1.745230 0.938718 7.041251 32 31 36
1.708974 1.183527 6.912248 101 82 76
1.710379 1.225617 6.919462 111 109 110
1.708204 1.403684 6.869322 118 103 96
1.696335 1.891117 6.832361 132 126 128
1.694069 1.950682 6.824092 177 149 148
1.689650 2.021087 6.822476 148 140 129
1.988065 -2.078157 8.005198 71 63 60
1.923430 -1.135371 7.754644 107 105 106
1.930866 -1.057696 7.761610 73 68 75
1.765591 0.787983 7.083272 126 107 100
1.727222 1.071995 6.931276 164 149 144
1.721023 1.318846 6.895114 167 156 154
1.702425 1.968907 6.818848 209 204 200
1.991180 -2.372422 7.952206 166 161 167
2.002845 -2.206924 7.990607 143 126 116
1.996728 -0.847492 8.002797 80 70 71
1.961108 -0.340361 7.824695 162 157 164
1.789729 0.684569 7.129123 205 201 202
1.754371 0.998634 7.014163 216 208 206
1.729186 1.150281 6.904519 65 58 52
1.718242 1.409756 6.854003 126 106 105
1.714163 1.720163 6.834475 67 66 71
2.017025 -2.038435 7.997460 153 153 155
1.999031 -1.867383 7.938167 184 182 183
1.975550 -1.684671 7.835008 45 45 53
1.944812 -1.538967 7.755970 157 153 152
1.944505 -1.377133 7.720632 140 127 111
2.007062 -0.930219 7.933569 49 41 30
2.006020 -0.522369 7.961389 72 68 69
1.990160 -0.402734 7.879467 136 130 130
1.925337 -0.210143 7.642814 232 205 186
1.772200 0.858587 7.042345 28 17 21
1.731292 1.464338 6.849061 148 142 144
1.723095 1.498918 6.828933 115 96 98
1.721352 1.669131 6.832199 39 29 30
1.721721 1.804227 6.841245 213 202 198
1.718450 1.965802 6.821032 155 143 147
1.714691 2.062752 6.798326 186 161 156
1.734274 2.250444 6.885965 161 154 161
2.016373 -2.579151 7.944825 85 82 77
2.016689 -2.542379 7.960432 105 101 102
1.892773 0.076369 7.452271 63 57 57
1.841021 0.198602 7.263113 117 108 109
1.836027 0.230769 7.242631 228 218 206
1.824231 0.530358 7.212530 155 164 163
1.821735 0.594490 7.184887 120 96 96
1.747545 1.087224 6.903950 152 130 119
1.750298 1.316471 6.889772 104 98 102
1.730352 1.534893 6.818615 79 70 71
1.727473 1.885579 6.823491 65 63 66
2.017742 -2.423951 7.950973 121 104 84
2.022106 -2.360679 7.931309 76 67 60
2.021734 -2.325326 7.941262 91 87 86
2.028988 -2.198153 7.980567 197 183 182
2.044933 -2.151671 8.003164 153 142 138
1.972371 -1.539388 7.755342 131 129 130
1.967697 -1.466989 7.730766 17 17 17
2.035881 -0.775221 7.973281 109 103 105
2.031093 -0.608902 7.973124 61 57 58
1.783157 0.965961 7.017334 175 173 174
1.768771 1.062309 6.944336 111 96 93
1.741829 2.134593 6.800832 94 87 95
2.048357 -2.118490 7.994595 154 148 150
2.046431 -2.041065 7.995772 67 63 62
2.035170 -1.862394 7.964046 72 70 75
1.979041 -1.401966 7.711607 108 89 83
2.002410 -1.206009 7.811801 69 60 65
2.005592 -1.179997 7.820545 86 82 83
1.990540 -0.359387 7.746111 220 226 216
1.812296 0.788681 7.081532 177 174 165
1.766112 1.362045 6.864032 156 145 151
1.748233 1.844992 6.820092 84 79 85
2.014220 -1.605865 7.824167 125 121 122
2.041577 -0.951048 7.914618 155 143 131
2.045293 -0.532908 7.921161 95 93 94
1.995319 -0.375278 7.767236 207 214 206
1.863268 0.209066 7.233215 156 148 145
1.856446 0.267365 7.207658 103 95 92
1.855605 0.348424 7.199366 69 53 38
1.859724 0.406391 7.189775 142 137 133
1.762464 1.768862 6.823844 128 112 113
1.757348 1.808183 6.826860 96 82 82
2.059326 -2.604771 7.952285 160 160 172
2.058888 -2.512409 7.933415 178 164 163
2.071404 -2.093131 7.997360 105 101 102
2.053283 -1.734715 7.905371 135 133 136
2.008132 -1.491212 7.741869 123 121 124
2.012985 -1.256446 7.778327 149 135 135
1.959179 -0.125057 7.554771 90 80 78
1.953244 -0.053720 7.525401 73 67 67
1.938819 -0.020004 7.501956 148 146 149
1.889205 0.160277 7.253627 146 129 122
1.847027 0.698023 7.118054 216 207 202
1.796160 1.263787 6.904468 136 130 132
1.770919 1.691150 6.827826 111 115 116
1.767718 1.883438 6.809233 142 136 140
1.775936 2.032290 6.846353 94 83 87
2.070415 -2.280957 7.938041 114 108 120
2.025618 -1.393488 7.753998 114 109 105
2.011424 -1.313787 7.727445 123 113 104
2.073603 -0.798446 7.960947 139 135 134
2.056357 -0.497491 7.884905 157 155 156
1.992743 -0.301035 7.648737 62 52 42
1.887892 0.170132 7.243090 54 37 30
1.869248 0.454817 7.186230 54 45 46
1.787525 1.456376 6.842154 105 99 103
1.782591 2.171355 6.835880 46 40 42
1.794383 2.247494 6.895277 59 59 59
2.078076 -0.883348 7.926230 99 79 72
2.067708 -0.605834 7.914889 137 128 123
2.046916 -0.438525 7.803555 100 93 100
1.879653 0.583147 7.150704 76 62 61
1.828809 1.162411 6.971090 114 109 115
1.815693 1.199282 6.905460 112 108 109
1.786095 1.631912 6.820163 96 90 92
2.115953 -2.150761 8.011317 61 53 50
2.113446 -1.960963 8.029077 112 105 113
2.106024 -1.903079 7.999207 34 28 30
2.053776 -1.643219 7.823335 82 74 72
2.067990 -1.169952 7.844520 107 92 87
2.067240 -1.094840 7.844722 73 54 40
1.965593 0.024093 7.438298 104 96 94
1.886526 0.593344 7.141965 103 97 97
1.848848 0.999516 7.008172 197 173 169
1.825343 1.184236 6.914505 74 68 70
1.797952 1.861600 6.804418 46 36 34
1.806998 1.954096 6.837255 122 111 117
2.084255 -0.979471 7.850026 84 66 56
1.902110 0.369374 7.157629 90 73 53
1.856697 0.954133 7.012298 119 112 104
1.811108 1.518570 6.822854 65 65 67
1.826362 1.676431 6.848444 102 93 94
2.108979 -2.519361 7.931580 148 144 158
2.136366 -2.205867 8.020647 69 57 57
2.101228 -1.683390 7.873511 74 69 75
2.090530 -1.615124 7.840206 120 118 119
2.091940 -1.078250 7.830201 113 100 91
2.110125 -0.690849 7.904807 151 149 150
2.110018 -0.674173 7.903727 142 138 137
2.049159 -0.380047 7.666706 216 204 192
1.907532 0.524512 7.147230 29 19 17
1.901699 0.648310 7.129285 102 97 101
1.899182 0.779703 7.113333 161 150 156
1.871636 0.858891 7.035261 71 58 65
1.874927 0.915805 7.015993 200 196 193
1.866390 1.102447 6.996736 150 138 138
1.852510 1.261521 6.908023 51 51 59
1.838616 1.325572 6.887028 149 149 151
1.827446 1.756083 6.823030 164 164 166
1.865373 2.067613 6.966479 138 131 138
2.189323 -2.672534 8.156130 153 145 156
2.126275 -2.335035 7.913120 85 81 82
2.162631 -2.062482 8.053537 142 137 143
2.096925 -1.214610 7.819810 144 137 131
2.101124 -1.126818 7.822182 100 94 98
2.002136 -0.010768 7.445879 128 117 111
1.917952 0.492197 7.144188 127 105 92
1.909969 0.590834 7.130107 116 107 108
1.899980 1.026850 7.074889 130 108 95
1.845793 1.477242 6.839980 75 64 62
1.837456 1.565965 6.831789 84 85 90
1.832592 1.780500 6.831649 202 192 191
1.826303 1.890154 6.811031 37 27 28
1.846853 1.981247 6.890662 104 99 103
2.174327 -2.185776 8.057544 100 96 93
2.182125 -1.826337 8.064596 117 119 131
2.102902 -1.367195 7.789007 139 135 136
2.107919 -0.982402 7.832262 119 110 101
2.116819 -0.565436 7.850865 125 129 132
2.039821 -0.300235 7.580685 95 85 84
2.003778 0.053347 7.406375 192 188 187
1.935377 0.201275 7.189899 180 169 167
1.921061 0.293254 7.144268 238 225 217
1.926217 0.441123 7.149074 83 73 71
1.931490 0.563166 7.132600 73 69 68
1.907325 0.985151 7.051327 163 151 151
1.903488 1.184840 7.037685 102 96 98
1.856576 1.397914 6.854851 175 173 176
1.840331 1.868164 6.822277 150 135 138
2.184342 -1.980822 8.053658 111 102 103
2.127522 -1.676372 7.859532 117 115 116
2.122076 -1.632653 7.833014 81 83 82
2.114960 -1.522677 7.809138 88 89 93
2.121324 -1.074955 7.813458 117 99 87
2.012396 -0.003565 7.436293 78 67 65
1.937060 0.393430 7.131036 103 94 87
1.930874 0.619434 7.125703 161 148 142
2.129346 -1.289118 7.797034 125 121 120
2.129629 -1.211936 7.800338 125 115 114
2.130864 -1.026321 7.818557 94 88 88
2.128824 -0.955016 7.823123 134 123 117
2.142576 -0.878584 7.838712 119 115 116
2.134556 -0.609545 7.824809 121 119 120
2.071288 -0.321526 7.579504 97 87 78
2.012032 0.139096 7.337909 206 187 183
1.949594 0.237846 7.130886 164 147 139
1.934308 1.044123 7.076600 181 165 165
1.899545 1.228827 6.925358 55 50 56
1.864632 1.776005 6.846590 181 176 173
2.196044 -2.274458 7.994997 171 167 166
2.212601 -2.054586 8.052302 147 143 142
2.150268 -0.853924 7.828434 146 136 134
2.134412 -0.514498 7.787009 95 89 93
2.018247 0.109368 7.350945 171 156 153
1.956569 0.300984 7.110261 142 128 127
1.945558 1.033979 7.088239 122 109 119
1.894415 1.367755 6.882984 170 158 160
1.875587 1.497774 6.854549 92 82 83
1.907213 1.557857 6.928567 51 51 59
1.905655 2.204604 6.903785 136 129 137
2.219444 -1.852022 8.064085 52 52 50
2.150334 -1.426571 7.790971 41 36 40
2.145121 -1.304083 7.779691 173 166 160
2.148220 -1.134408 7.794541 130 115 110
2.151898 -1.084803 7.792078 126 117 108
2.058895 -0.085403 7.451757 69 63 63
2.020864 0.133355 7.337782 185 175 173
1.953103 1.153972 7.065011 87 82 86
1.940527 1.173308 7.046007 116 103 110
1.919902 1.670076 6.939467 85 82 91
1.902519 1.753058 6.872961 120 121 126
1.920012 1.919622 6.949296 50 31 27
1.917897 2.174169 6.916873 117 110 118
2.247384 -1.755343 8.109796 96 90 90
2.156543 -1.173594 7.788291 108 95 87
2.160316 -0.634958 7.801184 118 115 122
1.970033 0.241807 7.113137 150 136 135
1.969018 0.476318 7.112770 131 124 114
1.972312 0.656544 7.120226 160 151 144
1.970929 0.725001 7.106202 140 124 125
1.971803 0.798453 7.091589 106 96 95
1.964574 0.895770 7.063588 132 127 124
1.968216 1.120098 7.077695 61 57 58
1.926449 1.267328 6.939068 156 163 181
1.926244 1.297766 6.912714 140 151 155
1.913296 1.326836 6.878241 175 165 166
1.940695 1.998624 6.965754 70 66 65
2.236995 -2.057282 8.053308 75 70 67
2.163941 -1.312171 7.769371 126 111 106
2.167096 -1.289660 7.774834 99 88 84
2.094460 -0.262598 7.519173 211 197 188
2.090367 -0.197788 7.480938 131 123 121
1.981807 0.416609 7.103715 190 164 151
1.986327 0.556071 7.115060 152 140 142
1.981365 1.071975 7.103127 120 114 114
1.972026 1.212120 7.047728 121 116 120
1.948387 2.060537 6.962296 93 94 99
2.260790 -2.574038 8.068533 149 146 155
2.252905 -2.347431 8.049971 133 127 127
2.248124 -2.127432 8.006287 123 120 115
2.282158 -1.713735 8.145237 44 41 50
2.185348 -0.808911 7.798229 63 54 49
2.151000 -0.438743 7.668129 120 110 108
2.066420 0.033108 7.382867 58 53 50
1.986251 1.153607 7.061909 125 114 120
1.938299 2.142150 6.902105 110 99 105
2.294591 -2.646523 8.109180 75 70 67
2.276711 -2.612266 8.087091 104 99 103
2.252212 -2.378907 8.002718 92 84 82
2.259874 -2.174414 8.020489 41 35 37
2.262914 -1.972474 8.038770 57 53 52
2.208319 -1.530588 7.839868 120 120 122
2.187807 -1.351223 7.759962 134 126 123
2.167169 -0.484066 7.704721 215 197 197
2.150150 -0.414030 7.636231 170 159 157
2.127412 -0.350876 7.549005 207 184 176
2.092444 -0.086979 7.441761 92 92 92
2.000125 0.328066 7.102204 137 128 119
2.005778 0.984832 7.093451 123 105 101
1.999195 1.030295 7.101527 96 87 80
1.993215 1.138732 7.067914 134 122 122
1.952999 1.371077 6.948495 125 111 110
1.966544 1.456888 6.947482 130 116 113
2.263387 -2.124668 8.003673 85 84 82
2.203520 -0.806795 7.779788 139 133 133
2.009713 0.295571 7.091452 176 162 161
2.023381 0.589292 7.133852 103 94 97
2.023985 0.604147 7.137629 131 120 128
2.005312 0.899291 7.080546 103 91 91
1.979438 1.411598 6.961008 158 153 160
1.974702 1.837454 6.953732 137 138 133
1.979779 1.903610 6.979590 130 110 109
1.956586 2.169585 6.883238 80 74 76
2.329803 -2.325486 8.144812 114 110 109
2.325666 -1.943220 8.158893 67 56 50
2.251239 -1.590633 7.887283 140 139 144
2.206329 -1.203778 7.740017 116 107 110
2.214929 -1.056538 7.764059 171 163 161
2.210526 -0.994723 7.760695 56 50 52
2.213453 -0.830339 7.771099 131 124 106
2.124172 -0.177882 7.470244 144 140 139
2.109475 -0.009443 7.412618 132 116 117
2.066307 0.165043 7.256995 102 101 99
2.032866 0.225907 7.135205 139 134 131
2.022353 0.796220 7.096128 141 118 112
2.027972 0.950089 7.104385 101 102 104
2.014189 1.217633 7.051838 106 101 107
2.000450 1.358828 7.019127 125 124 129
2.002839 1.575627 7.002844 93 86 93
2.007143 1.638868 7.025428 99 90 95
1.994665 1.752990 6.985153 129 127 132
2.329150 -1.743745 8.138103 122 119 126
2.224573 -0.888501 7.761127 245 251 249
2.136984 -0.266831 7.488886 221 208 202
2.134341 -0.094640 7.456866 92 88 89
2.129230 -0.079268 7.449400 156 152 153
2.063496 0.194182 7.191111 28 27 25
2.038713 0.333403 7.115758 224 219 215
2.036586 0.744609 7.104250 89 89 87
2.033220 1.288698 7.068988 176 181 200
1.974077 2.221974 6.877806 82 86 89
2.352893 -2.085971 8.172155 80 81 85
2.351126 -1.797352 8.169828 104 105 110
2.255520 -1.550332 7.826752 112 112 114
2.229459 -1.031857 7.756971 178 161 153
2.225594 -0.986393 7.753558 71 62 57
2.223657 -0.636984 7.734421 158 148 139
2.035032 0.853315 7.070319 163 153 152
2.036726 1.224513 7.058741 31 31 33
2.045722 1.323564 7.072181 155 150 154
2.005007 1.997485 6.960295 37 34 29
1.994517 2.097530 6.923913 216 227 223
2.346012 -2.127382 8.124356 116 119 126
2.374188 -1.850841 8.208005 62 59 70
2.238992 -1.453111 7.749372 148 144 143
2.231913 -0.689247 7.733618 212 195 185
2.153492 -0.110693 7.459978 111 109 112
2.117368 0.130280 7.318477 200 187 181
2.074392 0.512567 7.154597 165 156 147
2.051246 1.116093 7.079825 38 23 26
2.046024 1.365594 7.068587 164 162 163
2.049120 1.506201 7.046465 82 71 67
2.006802 1.859593 6.944796 117 110 117
2.364090 -1.757318 8.133068 101 99 104
2.363147 -1.705742 8.113520 162 165 170
2.248368 -1.257679 7.747215 158 142 142
2.253217 -1.165475 7.735317 113 108 114
2.204201 -0.400214 7.586227 144 131 123
2.154851 -0.014385 7.411968 87 76 82
2.130841 0.095589 7.341195 201 197 198
2.071928 0.681832 7.119505 41 36 40
2.056213 1.311517 7.062706 170 168 171
2.037108 1.724549 6.998142 62 60 63
2.034820 1.967353 6.969042 109 94 91
2.271153 -1.386279 7.776341 73 71 74
2.267704 -0.935592 7.725734 76 74 75
2.175273 -0.204367 7.441312 187 169 157
2.071827 0.906464 7.096616 183 184 186
2.077036 0.989764 7.100350 58 58 58
2.045780 1.838847 6.972700 125 116 117
2.413100 -2.271182 8.211941 124 118 120
2.393481 -2.072961 8.149007 87 86 91
2.284050 -1.064929 7.744160 181 167 166
2.269220 -0.970306 7.724767 50 40 39
2.241154 -0.470422 7.629009 160 146 137
2.234125 -0.424117 7.605227 175 150 143
2.097572 0.458400 7.140584 63 54 55
2.072241 1.291250 7.057619 182 179 186
2.064118 1.634133 7.020294 69 64 68
2.065388 1.657356 7.016661 116 119 126
2.012789 2.126801 6.853310 65 55 63
2.411756 -1.872096 8.174887 123 125 138
2.398893 -1.707569 8.110687 90 91 95
2.232811 -0.376065 7.565360 220 201 203
2.090618 0.846843 7.075637 181 169 171
2.085309 1.111359 7.066325 149 139 147
2.087214 1.158147 7.041181 134 133 138
2.088791 1.399311 7.056998 139 138 136
2.048645 2.033588 6.922470 78 76 81
2.463338 -2.626114 8.332109 60 49 43
2.468309 -2.524017 8.309893 61 57 56
2.383337 -1.519769 8.036839 120 119 124
2.339748 -1.410598 7.878058 92 86 88
2.287588 -1.296231 7.738692 133 131 136
2.217135 -0.203398 7.471345 201 189 177
2.208847 -0.047078 7.443785 105 104 100
2.165259 0.104432 7.324751 88 83 89
2.121038 0.240827 7.140479 157 133 129
2.116717 0.362322 7.128288 93 89 88
2.109166 0.958741 7.094007 96 84 86
2.078071 1.721485 7.003647 125 126 130
2.487686 -2.586308 8.323283 76 67 70
2.443246 -2.016975 8.198597 95 89 91
2.440406 -1.979952 8.183185 70 67 74
2.292218 -1.217000 7.724769 141 139 144
2.299765 -0.934274 7.699450 117 117 119
2.251345 -0.357531 7.563200 181 179 180
2.230796 -0.101592 7.478150 85 79 83
2.117975 0.749180 7.093699 112 98 98
2.089737 1.989607 6.973381 191 190 188
2.418737 -1.571445 8.050611 98 102 113
2.318083 -1.146497 7.718317 117 117 119
2.297965 -0.715800 7.665880 181 170 164
2.298127 -0.665237 7.670235 100 86 75
2.210523 0.067454 7.377259 74 64 65
2.137945 0.454177 7.115078 32 32 24
2.133081 0.500976 7.121582 135 133 136
2.131515 0.552629 7.117845 131 127 128
2.116528 1.000735 7.068345 88 79 80
2.115390 1.063841 7.057405 123 118 124
2.112249 1.433135 7.039200 64 50 50
2.108485 1.670948 7.015963 15 14 19
2.541878 -2.429946 8.428752 140 136 137
2.455734 -1.910133 8.149988 43 40 35
2.458175 -1.894047 8.157487 135 133 136
2.425636 -1.603491 8.065071 127 130 139
2.423333 -1.546067 8.044822 99 99 99
2.344113 -1.253197 7.759120 99 99 101
2.322062 -0.992758 7.706472 61 50 44
2.284830 -0.539962 7.609323 128 108 101
2.207066 0.137083 7.321655 171 155 156
2.138070 0.753961 7.101112 74 59 64
2.130360 0.798808 7.069582 92 94 93
2.132378 0.836333 7.073995 50 41 44
2.125011 1.158126 7.040479 62 55 63
2.111025 1.960618 7.008018 37 31 35
2.052490 2.197186 6.811113 92 83 84
2.520193 -2.511361 8.332992 63 52 60
2.551819 -2.364511 8.416888 145 143 144
2.473905 -2.119913 8.177629 127 126 131
2.457308 -1.648477 8.095811 48 51 58
2.336812 -1.045321 7.724051 106 100 100
2.329024 -0.858893 7.691982 163 155 142
2.321871 -0.789441 7.684116 116 99 89
2.320133 -0.735816 7.654972 100 94 98
2.261364 -0.040588 7.463562 155 141 140
2.257042 0.045516 7.452024 133 126 133
2.135412 1.200574 7.040036 37 36 42
2.138542 1.247141 7.039010 84 84 92
2.135487 1.918806 7.030999 158 142 152
2.066781 2.148441 6.799509 157 167 169
2.565827 -2.312909 8.428689 82 80 83
2.487715 -2.042046 8.189493 132 130 131
2.483787 -1.993260 8.178678 121 116 122
2.472908 -1.752952 8.119695 100 103 112
2.335443 -0.926288 7.681682 71 69 70
2.322616 -0.591390 7.618926 99 94 101
2.164426 0.951858 7.104306 77 81 84
2.142933 1.410591 7.038651 122 116 118
2.142977 1.466524 7.031389 108 98 96
2.140465 1.502759 7.023576 58 49 54
2.136140 1.537255 7.020421 47 38 39
2.140481 1.576329 7.004171 165 166 171
2.140497 1.865295 7.039544 209 194 191
2.119211 2.003141 6.966617 167 162 169
2.093854 2.046748 6.864172 197 188 183
2.551243 -2.198489 8.345473 136 133 140
2.290682 -0.116995 7.485223 119 119 121
2.177486 0.631303 7.120130 132 133 137
2.156381 1.307652 7.036020 96 94 95
2.513142 -1.866113 8.191627 126 123 130
2.421366 -1.367345 7.876436 116 115 120
2.389691 -1.124702 7.760215 61 61 63
2.349934 -0.645045 7.646179 62 62 64
2.331745 -0.424188 7.574563 191 190 185
2.302261 -0.191993 7.508412 169 151 147
2.287300 0.040140 7.428553 66 65 71
2.272491 0.108829 7.402411 29 26 37
2.208085 0.235865 7.173082 105 99 99
2.171262 0.264732 7.065077 211 195 196
2.169251 0.302774 7.057357 146 144 147
2.176052 0.429911 7.088949 81 62 56
2.177064 0.585170 7.100865 107 97 98
2.200165 0.680766 7.159162 117 115 118
2.180249 1.039879 7.068933 133 133 131
2.168457 1.171177 7.043661 53 60 68
2.573808 -2.630691 8.363662 79 77 82
2.597590 -2.600056 8.415109 103 99 98
2.470792 -1.549698 8.004332 93 87 89
2.466870 -1.509714 7.991420 60 58 69
2.368755 -0.957738 7.687444 156 156 158
2.340993 -0.513417 7.575181 144 134 133
2.312151 -0.011891 7.465286 101 98 93
2.190714 0.943801 7.103713 88 82 84
2.168890 1.317911 7.026701 147 146 144
2.180800 1.899431 7.038715 127 102 108
2.610354 -2.097654 8.420519 136 135 133
2.421248 -1.177652 7.792946 84 82 87
2.399002 -0.991162 7.717944 49 48 56
2.355785 -0.568395 7.592600 76 70 74
2.350519 -0.470833 7.556242 172 168 167
2.252236 0.231487 7.266601 82 77 81
2.188398 1.101261 7.051016 164 160 159
2.176944 1.429846 7.004970 97 95 100
2.174020 1.663760 6.991294 71 61 59
2.185064 1.811175 7.026310 164 161 168
2.105411 2.158555 6.775259 89 63 74
2.605225 -1.947974 8.352523 98 91 98
2.435287 -1.222645 7.799979 151 149 152
2.185944 1.466101 6.993390 130 123 117
2.187753 1.497048 6.993710 130 121 122
2.195718 1.747624 7.004110 155 155 165
2.107966 2.095584 6.752530 169 166 159
2.640523 -2.315482 8.413911 27 33 45
2.631355 -2.202570 8.400979 22 17 23
2.508951 -1.619758 8.009498 15 14 20
2.490093 -1.477801 7.950747 201 197 198
2.399077 -0.724786 7.659207 113 112 118
2.341259 -0.120555 7.464283 158 156 157
2.295205 0.197327 7.340813 153 153 155
2.214356 0.448533 7.060951 62 59 66
2.244004 0.689389 7.160683 60 64 65
2.187751 1.604245 6.982297 91 86 90
2.190611 2.041633 6.979535 74 62 66
2.651746 -2.085322 8.425741 97 95 96
2.490791 -1.432238 7.905264 158 159 161
2.433557 -1.035285 7.717752 143 138 142
2.403066 -0.682009 7.642876 193 182 178
2.381206 -0.557669 7.575483 122 118 117
2.232459 0.810772 7.083518 80 80 82
2.236626 0.873074 7.089954 152 140 142
2.187007 2.067965 6.926883 85 56 74
2.138053 2.203251 6.767004 77 68 69
2.659715 -2.381219 8.423030 87 87 95
2.631592 -1.782798 8.320456 143 143 151
2.434206 -0.957078 7.693563 106 96 95
2.236186 0.548579 7.054566 103 84 77
2.235188 0.981619 7.053008 224 201 195
2.215605 1.322428 6.996709 121 115 115
2.216583 1.361441 7.000034 185 180 176
2.219687 1.419365 6.992954 127 121 121
2.215759 1.547673 6.980650 142 131 135
2.674354 -2.345579 8.418661 76 76 78
2.511552 -1.412861 7.890130 228 224 221
2.481540 -1.275676 7.810946 124 120 121
2.431962 -0.712815 7.639089 115 110 114
2.396489 -0.359179 7.539744 68 68 70
2.369627 -0.057648 7.482343 84 74 75
2.368954 0.031610 7.455826 119 115 116
2.360329 0.109214 7.427935 136 127 122
2.249361 0.427268 7.057748 92 97 100
2.278347 0.721269 7.171165 118 118 128
2.227597 1.453323 6.988703 148 139 132
2.222486 1.533937 6.982976 103 99 96
2.228495 1.902343 6.996836 138 146 148
2.691611 -2.533227 8.417497 42 41 46
2.688383 -2.104087 8.425290 116 115 123
2.514254 -1.356770 7.868564 125 120 126
2.480146 -1.111421 7.752447 132 126 126
2.444183 -0.855536 7.667397 213 202 200
2.427982 -0.625086 7.616982 86 70 71
2.251378 0.378711 7.066106 82 72 71
2.338721 0.663703 7.315786 103 104 109
2.260721 0.892442 7.073194 103 98 102
2.246597 1.219982 7.014347 155 153 158
2.228695 1.664454 6.964232 123 124 126
2.227796 1.715076 6.976391 142 138 137
2.239948 2.046757 6.991614 148 154 152
2.700703 -2.446994 8.418297 119 111 108
2.683070 -1.953580 8.377751 13 13 15
2.674281 -1.854158 8.324265 72 66 66
2.566898 -1.558679 8.008468 115 114 120
2.502575 -1.259935 7.804479 156 150 150
2.453810 -0.767925 7.652712 198 182 182
2.411552 -0.331164 7.519237 96 92 93
2.411589 -0.164359 7.507639 84 78 78
2.268390 1.033964 7.054059 189 167 154
2.258017 1.258103 7.020278 167 158 159
2.241216 2.033805 6.989838 200 189 195
2.224934 2.075812 6.940064 124 134 143
2.694474 -2.285276 8.363679 89 90 95
2.685328 -2.204082 8.339512 106 104 105
2.556868 -1.482798 7.929595 56 49 57
2.527099 -1.333203 7.855062 125 118 125
2.478678 -1.046238 7.690246 35 33 34
2.465090 -0.981722 7.674959 131 121 120
2.427590 -0.414610 7.523544 83 78 75
2.258965 1.410140 6.988441 190 181 184
2.252544 1.754278 6.968866 82 63 67
2.716570 -2.522308 8.414145 71 68 77
2.522142 -1.237986 7.798247 144 142 145
2.511137 -1.136762 7.767922 141 140 138
2.441555 -0.518660 7.543868 109 110 104
2.429682 -0.255248 7.497265 80 74 74
2.431288 -0.187832 7.514762 152 147 153
2.401250 0.049409 7.437199 65 63 66
2.396334 0.132659 7.399437 83 86 95
2.386537 0.268421 7.365250 131 129 130
2.370079 0.289475 7.342670 117 107 106
2.376462 0.336694 7.345978 74 64 63
2.315574 0.882628 7.164424 100 95 99
2.289782 1.025887 7.074897 176 163 154
2.715068 -1.694649 8.357749 110 113 120
2.495722 -0.925956 7.676408 42 40 53
2.465109 -0.594227 7.581071 216 212 213
2.428206 -0.042579 7.466652 150 150 150
2.392287 0.196980 7.369977 37 35 38
2.375129 0.448185 7.292703 61 54 61
2.352080 0.741861 7.210246 140 141 146
2.737265 -2.613566 8.355024 86 79 69
2.746461 -2.454541 8.415960 26 25 33
2.709267 -1.764019 8.308411 101 102 104
2.561374 -1.334022 7.853548 129 125 124
2.503878 -0.825014 7.663757 100 85 82
2.446061 -0.299840 7.485385 132 123 128
2.439401 -0.084948 7.467722 90 86 87
2.437723 -0.007350 7.461466 57 52 58
2.382757 0.527612 7.272188 65 40 36
2.309867 1.062638 7.059193 196 179 172
2.297934 1.177436 7.037810 88 89 84
2.298382 1.339770 7.016550 198 193 197
2.295250 1.613919 6.989646 90 88 93
2.277841 1.957765 6.952188 112 109 104
2.760026 -2.363458 8.395500 51 45 45
2.750180 -2.017245 8.393392 150 142 140
2.734867 -1.871861 8.319729 119 115 114
2.741797 -1.658367 8.340279 118 117 122
2.588422 -1.426934 7.900132 169 168 164
2.437466 0.090517 7.413563 170 164 168
2.382765 0.701541 7.251455 52 55 64
2.370484 0.736037 7.222857 116 119 128
2.328365 1.449821 7.090521 122 121 126
2.281790 1.888705 6.959679 71 69 74
2.747111 -2.278006 8.333888 105 103 114
2.746079 -2.264062 8.328121 187 187 195
2.546046 -1.014156 7.721847 81 73 70
2.524131 -0.761544 7.644175 78 68 69
2.494866 -0.637660 7.576045 121 109 113
2.469908 -0.464350 7.513837 134 123 117
2.471064 -0.357766 7.492977 118 106 108
2.416763 0.365878 7.343332 91 90 95
2.571522 -1.177909 7.787311 117 114 121
2.417092 0.665312 7.299720 137 141 144
2.330412 1.175897 7.042108 196 180 167
2.357761 1.449854 7.122536 53 44 49
2.299231 1.793728 6.932189 140 135 139
2.301299 1.831836 6.943165 75 61 61
2.652999 -1.442266 7.973137 91 96 102
2.561928 -0.958265 7.693291 162 162 150
2.484192 -0.302045 7.464849 216 199 205
2.484547 -0.095765 7.463146 97 93 94
2.477150 0.177416 7.434610 4 4 2
2.379502 0.988310 7.149260 169 155 155
2.355729 1.054385 7.075908 141 123 119
2.376835 1.524441 7.131457 91 71 72
2.335495 2.050482 7.001695 172 155 161
2.297113 2.097794 6.890257 39 38 46
2.808944 -2.528811 8.416545 83 73 71
2.796544 -2.094450 8.379857 12 7 13
2.821259 -1.947924 8.445771 85 83 86
2.657463 -1.409910 7.951503 108 106 111
2.575475 -1.072067 7.719506 54 57 66
2.566627 -0.999354 7.695152 41 41 39
2.551439 -0.744043 7.628093 38 36 39
2.507287 -0.425345 7.498667 137 131 131
2.482905 0.076151 7.434141 124 118 128
2.317754 1.674098 6.930955 161 159 160
2.824749 -2.628859 8.405660 93 89 88
2.806579 -2.152367 8.356486 88 88 88
2.577669 -0.913681 7.676466 198 187 183
2.499953 -0.249653 7.450878 157 155 160
2.501465 -0.200495 7.455076 122 112 110
2.499909 0.277359 7.425284 193 181 169
2.378784 1.037608 7.093112 168 144 140
2.357056 1.229529 7.027404 187 188 190
2.365646 1.287160 7.034554 156 140 141
2.327288 1.949543 6.937705 167 166 180
2.832905 -2.218105 8.389394 120 119 124
2.845936 -2.022716 8.435699 56 52 53
2.808065 -1.814633 8.318336 78 77 75
2.690285 -1.325737 7.987219 153 148 155
2.627337 -1.144217 7.778378 27 27 29
2.511902 -0.120424 7.435959 87 84 93
2.487375 0.378172 7.370873 120 114 116
2.444726 0.753196 7.239058 100 97 104
2.434316 0.821350 7.212803 118 113 117
2.392457 1.143207 7.080542 184 179 183
2.416299 1.420474 7.145041 64 55 60
2.332696 1.738448 6.909791 147 136 134
2.331883 1.839706 6.918297 74 73 71
2.316871 2.078850 6.880130 65 61 62
2.387042 2.308850 7.074238 29 29 31
2.844990 -1.883280 8.390222 66 64 77
2.807045 -1.570481 8.286690 146 145 150
2.518536 -0.279925 7.439981 194 179 174
2.526995 -0.089423 7.453121 24 26 21
2.514729 0.134453 7.422730 65 64 72
2.498716 0.471843 7.365631 71 70 76
2.432265 0.926157 7.176720 153 145 142
2.412024 1.490208 7.125413 52 39 33
2.337749 1.777659 6.890450 127 115 115
2.605618 -0.860218 7.658613 105 98 105
2.568006 -0.647019 7.563535 101 97 96
2.551967 -0.540402 7.511933 151 139 127
2.537159 -0.331969 7.448142 96 85 81
2.527978 -0.173694 7.427102 185 177 175
2.538375 -0.046497 7.452432 136 137 141
2.500350 0.572894 7.333740 48 39 44
2.445317 0.846763 7.193945 65 64 69
2.409969 1.125243 7.074229 10 11 15
2.348337 1.762799 6.893657 103 89 88
2.384227 2.222066 6.992209 108 103 107
2.863742 -2.528651 8.390317 89 85 86
2.866101 -2.412766 8.396477 126 126 134
2.858532 -2.185258 8.357297 41 39 42
2.841133 -1.665480 8.325363 39 36 43
2.717344 -1.307824 7.961124 88 86 91
2.623145 -0.964409 7.676238 212 206 208
2.615377 -0.844505 7.658411 90 81 82
2.569607 -0.480767 7.497937 191 182 173
2.557596 -0.394431 7.477655 172 168 167
2.549013 -0.279830 7.444022 213 199 196
2.546530 -0.110489 7.449718 16 14 15
2.552719 -0.011121 7.473980 125 122 131
2.553098 0.287246 7.450079 150 131 133
2.517905 0.387589 7.369980 43 38 42
2.511714 0.501484 7.355824 28 23 27
2.465103 0.763423 7.217318 97 99 111
2.426519 1.485205 7.111995 100 86 83
2.887068 -2.472502 8.419358 88 87 93
2.889588 -1.906179 8.418709 127 133 149
2.885274 -1.893055 8.415563 136 139 154
2.847350 -1.579022 8.296867 91 89 94
2.834899 -1.520756 8.257289 93 92 100
2.630441 -0.946804 7.670679 204 194 195
2.626228 -0.907362 7.651579 122 114 112
2.628844 -0.786973 7.642182 120 111 112
2.553111 0.094724 7.427591 130 128 133
2.558959 0.174565 7.438861 69 64 61
2.545206 0.253308 7.435035 176 161 164
2.425907 1.257719 7.060750 158 158 166
2.433192 1.313697 7.083904 170 161 162
2.424783 1.734561 7.043042 124 113 117
2.579539 -0.005539 7.494664 137 133 130
2.571672 0.049331 7.465682 82 71 75
2.508966 0.643555 7.276362 55 62 70
2.465472 0.983380 7.142438 51 40 44
2.452870 1.065732 7.113978 85 84 92
2.446807 1.393432 7.096630 139 124 121
2.442865 1.437659 7.108143 109 100 101
2.379834 1.876712 6.895518 60 61 66
2.376640 2.043958 6.912455 52 40 50
2.392793 2.243506 6.945233 92 83 86
2.916262 -2.320737 8.432811 153 137 147
2.892506 -2.125656 8.367769 134 133 138
2.910764 -2.089750 8.385104 72 70 73
2.733736 -1.182221 7.876318 149 147 150
2.659689 -0.997835 7.680800 195 186 187
2.605022 -0.585892 7.514684 110 100 98
2.481170 0.901218 7.158686 48 43 47
2.455634 1.546087 7.093534 51 45 55
2.930401 -1.981192 8.415137 53 49 48
2.754923 -1.268781 7.926847 82 82 84
2.593806 -0.296770 7.447637 78 74 75
2.587924 0.097738 7.436146 76 77 82
2.577709 0.207683 7.426553 141 133 130
2.566608 0.422046 7.372970 180 173 180
2.484564 0.940478 7.139921 83 83 85
2.473611 1.184075 7.108631 159 148 146
2.464861 1.628347 7.093981 129 127 132
2.477372 1.801788 7.124462 88 69 63
2.393081 1.831578 6.877308 84 82 83
2.398828 1.935065 6.891376 95 92 101
2.923238 -2.082461 8.384660 111 106 110
2.927949 -1.792693 8.364491 19 20 24
2.911134 -1.638094 8.341971 32 35 40
2.699801 -1.114884 7.729208 27 20 27
2.606150 -0.492328 7.462267 77 74 81
2.614444 -0.150308 7.480369 146 131 126
2.619687 -0.111114 7.499259 42 33 34
2.599446 0.287841 7.448537 66 55 53
2.591142 0.365467 7.406048 16 15 13
2.581957 0.490619 7.387570 148 139 142
2.503633 0.845358 7.160429 65 70 73
2.467140 1.282934 7.076410 150 149 154
2.479586 1.387818 7.082821 97 86 90
2.473282 1.458416 7.074414 58 48 46
2.381238 2.068684 6.819288 74 69 73
2.409238 2.149046 6.896537 65 65 67
2.941320 -2.605292 8.388082 100 89 85
2.950828 -2.477601 8.409423 163 161 162
2.855206 -1.378729 8.159996 160 160 160
2.629646 -0.532916 7.488835 178 164 161
2.621793 -0.390398 7.450947 113 109 110
2.596133 0.663669 7.387507 36 29 37
2.510432 0.861870 7.154707 140 139 147
2.491720 1.073579 7.107426 22 22 24
2.493491 1.254744 7.102388 94 93 98
2.486862 1.583948 7.083930 122 121 129
2.979454 -2.438974 8.476127 115 112 121
2.994778 -2.260318 8.511632 99 98 94
2.954946 -2.028573 8.382414 66 59 66
2.698092 -1.061706 7.673156 98 98 106
2.676230 -0.691364 7.593696 140 134 136
2.634897 -0.143897 7.474484 169 155 152
2.503959 0.937594 7.118746 114 111 120
2.501565 1.335971 7.083830 92 83 86
2.486204 1.492507 7.050518 50 56 52
2.523755 1.715330 7.166801 23 17 21
2.978674 -2.002433 8.403554 78 76 81
2.709229 -0.928766 7.641635 145 144 152
2.637669 -0.433700 7.455996 111 105 105
2.636662 0.017973 7.455881 123 115 112
2.638023 0.239631 7.457323 70 59 63
2.621986 0.565962 7.404565 147 133 132
2.573937 0.796681 7.259322 109 95 94
3.020540 -2.580341 8.500776 59 57 62
2.717594 -0.778031 7.666285 65 60 64
2.659014 -0.568485 7.492716 66 56 54
2.660855 -0.545133 7.483476 20 7 14
2.639071 -0.357543 7.443698 130 120 119
2.649163 0.140737 7.467915 73 61 65
2.629003 0.714539 7.406491 129 126 133
2.535632 1.165425 7.123697 92 81 85
2.524262 1.302652 7.104095 55 46 51
3.064990 -2.449358 8.573795 58 53 60
3.037121 -2.235466 8.522317 98 97 102
3.026448 -2.166350 8.466711 151 147 148
2.954295 -1.679441 8.298818 113 108 114
2.838990 -1.200262 7.955898 121 126 129
2.724914 -0.936848 7.655612 137 136 142
2.648201 0.077273 7.439838 138 139 144
2.642679 0.488158 7.391911 89 77 81
2.641457 0.626851 7.386971 39 40 42
2.577879 0.790461 7.251326 103 87 87
2.525135 1.069723 7.083903 38 39 43
2.528036 1.089188 7.085009 93 99 99
2.590056 1.931829 7.231897 48 40 37
2.531528 2.239043 7.083873 91 86 92
2.832556 -1.066923 7.902944 47 47 55
2.681248 -0.230298 7.484974 125 115 123
2.673183 -0.110307 7.461697 30 30 32
2.672978 -0.043440 7.446609 73 68 74
2.635278 0.397568 7.362356 37 27 28
2.567286 0.812928 7.169459 110 114 115
2.547737 1.275984 7.108999 103 106 111
2.549320 1.555874 7.106138 39 25 25
2.558315 1.673336 7.138437 77 71 73
2.571141 2.245579 7.155308 98 93 97
3.067415 -2.365812 8.536981 86 86 88
3.051569 -2.134908 8.485028 86 84 87
3.005054 -1.810204 8.371756 144 145 149
2.995301 -1.683290 8.312138 139 138 144
2.954126 -1.521227 8.215905 60 59 54
2.932800 -1.406207 8.138577 143 145 142
2.746486 -0.884445 7.641677 122 126 137
2.767765 -0.802930 7.700861 187 177 176
2.685936 0.195887 7.450578 144 139 143
2.558057 1.198294 7.114051 69 55 55
2.580291 1.795259 7.167901 79 74 71
2.586189 2.102536 7.194570 111 115 116
2.709718 -0.307818 7.507606 171 165 169
2.686434 0.122769 7.435797 117 116 114
2.690889 0.236526 7.457817 189 187 188
2.552896 0.953564 7.059750 235 231 232
2.557426 1.031394 7.066961 135 127 125
2.616423 1.992856 7.222569 58 63 67
3.100380 -2.606866 8.547500 97 94 103
3.113686 -2.422774 8.572799 86 89 96
2.930358 -1.314656 8.061539 92 92 102
2.849105 -0.982552 7.855046 115 120 123
2.726286 -0.588691 7.493691 112 113 118
2.710236 -0.456174 7.466369 70 63 70
2.725003 -0.261363 7.515835 113 108 112
2.714284 -0.154880 7.476614 58 52 56
2.686071 0.502581 7.396140 53 53 55
2.580252 1.155584 7.112932 69 69 71
2.617605 2.051891 7.192156 83 78 82
3.105282 -2.335532 8.520103 56 54 55
3.071283 -1.882561 8.442455 80 74 78
2.993975 -1.488572 8.206653 131 131 143
2.911214 -1.244557 7.993914 135 135 137
2.811227 -0.864932 7.724778 96 97 102
2.785275 -0.713833 7.665033 47 50 55
2.775525 -0.667382 7.617147 44 42 45
2.716711 -0.133977 7.477200 88 87 85
2.721179 -0.068876 7.463269 79 73 77
2.708418 0.112316 7.434641 55 46 49
2.687603 0.362455 7.375563 90 79 77
2.684189 0.430389 7.372280 39 35 36
2.699919 0.713607 7.390615 90 88 91
2.574352 1.348937 7.048533 110 106 107
2.621840 1.851013 7.186367 73 56 49
3.090643 -2.160581 8.446651 70 70 68
3.091110 -2.130254 8.441332 22 21 19
3.077789 -2.043110 8.419696 38 37 35
3.070413 -1.767531 8.381497 88 87 85
3.044163 -1.681029 8.332185 52 58 70
2.965315 -1.373974 8.108151 71 72 77
2.722387 -0.511976 7.453050 156 154 159
2.710491 0.044909 7.417772 116 101 98
2.700098 0.519911 7.378990 129 125 126
2.579643 1.438923 7.045120 145 141 142
3.029519 -1.552292 8.243281 159 155 156
2.740024 -0.555540 7.455352 64 61 70
2.726144 0.326897 7.434309 170 161 162
2.698483 0.873624 7.348109 119 117 118
2.630714 1.054747 7.150612 140 137 146
2.603964 1.577827 7.082172 96 94 95
2.608068 1.650756 7.104126 118 116 119
2.636850 1.827891 7.173098 149 134 129
2.642610 2.160769 7.169951 65 59 59
3.091105 -2.040217 8.379621 46 42 41
3.092865 -1.815914 8.400549 43 48 52
2.963896 -1.309913 8.040586 111 116 120
2.930479 -1.152288 7.938852 122 122 122
2.839965 -0.751813 7.687488 132 127 134
2.778998 -0.325309 7.525961 65 64 62
2.711261 0.561168 7.349442 105 74 72
2.713363 0.717104 7.370151 47 45 50
2.648263 1.014072 7.175830 34 27 34
2.647007 1.278029 7.173025 52 51 56
3.135024 -1.909352 8.442024 143 146 155
3.020538 -1.428311 8.146201 148 151 158
2.987689 -1.369347 8.092651 113 117 129
2.948208 -1.239211 7.973913 97 96 94
2.940713 -1.065776 7.930122 65 68 75
2.922424 -1.018151 7.897480 129 119 128
2.903170 -0.951736 7.834661 29 22 30
2.856747 -0.786302 7.722394 45 45 45
2.781254 -0.604479 7.524866 113 111 114
2.773524 -0.257495 7.498602 136 139 148
2.725692 0.773138 7.360544 105 109 118
2.640620 1.061860 7.146467 140 140 150
2.648060 1.136133 7.156356 41 35 39
2.664589 2.072178 7.180096 101 108 114
3.123924 -2.192430 8.419773 115 115 117
3.122169 -1.960454 8.407834 24 22 25
3.060212 -1.550479 8.225349 64 58 60
2.959801 -1.144730 7.953888 31 29 34
2.904687 -0.930063 7.817263 150 151 153
2.898317 -0.893731 7.797305 156 154 155
2.887973 -0.862296 7.769931 104 100 97
2.775488 -0.183344 7.472282 32 28 29
2.757694 0.199701 7.412902 63 59 56
2.762621 0.249993 7.423608 183 178 184
2.753531 0.281723 7.411624 99 93 97
2.727031 0.441863 7.331762 142 140 143
2.725778 0.459235 7.341002 152 148 149
2.662275 1.039906 7.156018 36 39 46
2.643519 1.340466 7.109377 65 63 66
2.646463 1.700755 7.109265 154 141 135
2.668087 1.786501 7.163535 108 96 98
2.691792 1.937936 7.231202 50 44 46
3.182256 -2.466285 8.536554 38 39 34
3.170243 -2.346630 8.487535 149 144 148
3.156651 -2.304111 8.477482 109 107 110
3.131218 -2.122026 8.393121 105 103 108
3.130653 -2.015166 8.386744 86 82 81
3.108297 -1.701152 8.329747 74 86 98
3.098988 -1.647629 8.303642 93 97 100
3.082369 -1.581087 8.265499 82 77 83
2.788461 -0.516927 7.469556 127 126 131
2.810095 -0.460009 7.532472 86 91 94
2.728226 0.908524 7.302518 131 121 130
2.731572 0.939921 7.303322 131 129 134
2.643728 1.624175 7.082489 58 56 57
3.195506 -2.507953 8.535294 110 108 113
3.193894 -2.400144 8.516440 121 123 138
3.167556 -1.813806 8.441155 119 113 115
3.073974 -1.510763 8.204789 97 94 103
3.053845 -1.435332 8.151579 69 81 81
2.864869 -0.725464 7.631464 124 122 127
2.818142 -0.371936 7.531632 91 90 96
2.825824 -0.329701 7.534098 47 41 41
2.805780 -0.292717 7.510398 55 56 61
2.789242 -0.119413 7.453720 103 106 113
2.733860 0.964856 7.283141 133 125 122
2.665649 1.514834 7.092659 178 173 179
2.715100 2.084498 7.225830 35 33 38
3.175746 -1.883394 8.454201 72 67 74
2.985173 -1.025304 7.930808 69 70 75
2.892812 -0.769565 7.666685 108 108 110
2.788388 -0.078576 7.410509 138 133 139
2.779391 0.012456 7.384287 165 145 146
2.683979 1.404896 7.123070 153 153 161
2.721045 1.829959 7.210927 106 98 96
2.731553 2.108178 7.238828 20 19 25
2.704332 2.149634 7.181331 52 53 57
3.218942 -2.714123 8.529048 35 30 36
3.167730 -2.021276 8.389198 96 90 90
2.860713 -0.590345 7.574976 134 132 135
2.825845 0.155269 7.476547 58 59 63
2.828799 0.255175 7.487822 42 38 39
2.765253 0.665581 7.310764 190 176 175
2.703697 1.192974 7.163602 31 26 30
