ply
format ascii 1.0
element vertex 1231
property float x
property float y
property float z
property uchar red
property uchar green
property uchar blue
end_header
-1.961738 -1.398543 9.038993 103 89 76
-2.031241 -1.411747 9.349364 15 13 14
-1.343270 -3.637214 5.973056 20 15 12
-0.664550 -1.464425 2.891199 121 86 60
-0.620755 -1.229048 2.673372 161 97 62
-0.642361 -1.235719 2.764424 173 115 78
-1.091812 -1.649181 4.771686 23 19 16
-1.096182 -1.609429 4.795218 24 20 17
-1.120324 -1.579754 4.934968 24 24 22
-1.186001 -1.577030 5.261486 29 24 24
-1.199378 -1.581873 5.322799 96 86 77
-1.279772 -1.586204 5.715793 18 18 19
-1.952510 -1.408135 9.005576 108 96 89
-1.996541 -1.344959 9.235514 13 12 14
-1.927758 -1.220091 8.948693 8 8 10
-1.463267 -4.047650 6.548436 19 14 8
-0.600845 -1.203270 2.592628 201 147 109
-0.630920 -1.238816 2.720169 166 83 69
-0.645751 -1.235295 2.782313 174 118 81
-0.653481 -1.243223 2.818878 178 123 83
-0.674935 -1.267337 2.910912 195 142 101
-1.019210 -1.829938 4.392929 102 62 27
-1.083529 -1.791579 4.695251 32 30 23
-1.080937 -1.777761 4.687889 32 31 26
-1.074426 -1.707350 4.673400 24 25 19
-1.094951 -1.648765 4.795161 26 22 19
-1.128137 -1.579242 4.983675 26 24 25
-1.156747 -1.591221 5.115383 25 37 26
-1.317161 -1.651855 5.894653 21 21 19
-1.700923 -1.545313 7.779106 23 21 22
-1.722875 -1.533013 7.885617 110 103 90
-1.863518 -1.470743 8.571207 79 76 71
-1.985734 -1.353090 9.192370 13 13 15
-0.866494 -2.273829 3.886554 47 30 20
-0.708047 -1.767338 3.142506 218 165 131
-0.697105 -1.734814 3.091802 224 171 137
-0.601906 -1.365490 2.628751 129 88 54
-0.631766 -1.418725 2.753298 168 124 89
-0.607454 -1.310925 2.636299 111 61 38
-0.618853 -1.255034 2.671836 203 150 116
-0.634636 -1.241336 2.738073 193 108 89
-1.080939 -1.752749 4.700022 22 21 17
-1.079401 -1.743821 4.693936 22 21 17
-1.074951 -1.702447 4.683882 22 21 16
-1.071873 -1.644743 4.691048 26 26 22
-1.079577 -1.643690 4.723583 23 22 20
-1.087887 -1.647054 4.763654 25 24 20
-1.099813 -1.613880 4.820855 27 24 20
-1.120959 -1.607207 4.939285 189 179 160
-1.734118 -1.445060 7.975005 19 17 18
-2.021104 -1.410803 9.334937 12 10 13
1.849152 4.902590 -7.732310 90 73 29
-0.614982 -1.265171 2.658706 135 72 37
-0.612022 -1.237197 2.644526 201 151 115
-1.120712 -1.972116 4.845805 119 79 30
-1.153091 -1.993375 4.990592 192 148 101
-1.125434 -1.870227 4.883342 27 27 19
-1.075843 -1.760232 4.676439 24 23 18
-1.069793 -1.706861 4.664534 21 22 16
-1.071065 -1.638484 4.694207 22 21 19
-1.093249 -1.642758 4.799814 21 20 17
-1.108080 -1.607197 4.882374 141 115 106
-1.119436 -1.575330 4.956424 25 25 23
-1.163065 -1.586904 5.161757 104 100 86
-1.173872 -1.576140 5.223893 19 19 17
-1.178428 -1.574133 5.245841 28 27 25
-1.263254 -1.647151 5.645286 120 112 101
-1.288065 -1.647693 5.769315 26 25 21
-1.283578 -1.591175 5.747687 24 22 23
-1.296204 -1.593334 5.813744 166 157 142
-1.292601 -1.552901 5.814660 23 25 22
-1.699817 -1.539298 7.788678 22 20 21
-1.735516 -1.456466 7.988780 11 9 10
-1.851353 -1.470186 8.533961 19 18 14
-1.896287 -1.439507 8.748261 12 10 15
-1.955689 -1.194846 9.112029 11 9 14
-2.036662 -1.225677 9.490836 7 6 11
-0.867355 -2.285306 3.901931 33 19 10
-0.642075 -1.255342 2.777531 188 107 85
-1.046035 -1.872590 4.522822 100 62 23
-1.164304 -1.993850 5.045604 202 161 115
-1.072695 -1.749675 4.671657 28 27 23
-1.074718 -1.726016 4.683990 20 21 15
-1.070559 -1.706645 4.673517 23 24 18
-1.081359 -1.701770 4.725014 25 24 19
-1.144499 -1.586273 5.074762 137 133 120
-1.192197 -1.580002 5.316615 192 185 166
-1.220892 -1.598652 5.454368 155 148 130
-1.720970 -1.532382 7.900304 189 182 164
-1.918184 -1.428653 8.869376 16 16 18
-0.646269 -1.426322 2.823826 109 67 42
-0.603771 -1.304417 2.627929 113 62 35
-0.640934 -1.255514 2.772961 185 103 82
-1.125803 -1.999268 4.874480 109 70 27
-1.116615 -1.892235 4.850090 77 63 44
-1.073167 -1.734657 4.681453 25 24 22
-1.083678 -1.698923 4.744411 24 25 19
-1.086349 -1.694846 4.760736 23 24 19
-1.072033 -1.657722 4.702530 24 22 22
-1.085337 -1.642506 4.767619 24 23 19
-1.086614 -1.640739 4.779070 24 23 21
-1.071207 -1.585168 4.705862 21 22 17
-1.099962 -1.613047 4.846694 24 23 19
-1.129998 -1.608731 4.998467 27 26 24
-1.120697 -1.575822 4.975243 20 20 19
-1.159677 -1.573645 5.168067 24 23 23
-1.204743 -1.584730 5.383505 118 109 97
-1.299950 -1.639593 5.838814 15 15 11
-1.296676 -1.632307 5.828568 22 22 20
-1.686849 -1.547991 7.751552 22 20 21
-1.702279 -1.536914 7.816602 19 19 17
-1.713935 -1.534413 7.875066 95 90 76
-1.725985 -1.529557 7.944046 74 77 65
-1.741872 -1.517224 8.018007 89 82 73
-1.806748 -1.470321 8.340931 137 127 117
-1.838600 -1.467179 8.495066 46 45 42
-1.872199 -1.458209 8.655915 17 13 14
-1.889104 -1.450249 8.733859 16 14 17
-1.458498 -4.069871 6.571496 24 16 7
-0.822892 -2.147611 3.701064 83 52 24
-0.629930 -1.413345 2.755383 179 131 96
-0.622446 -1.278199 2.700263 194 132 97
-0.608136 -1.234685 2.637455 202 152 115
-1.121047 -1.921204 4.870561 203 162 116
-1.117468 -1.912790 4.855108 203 162 116
-1.059043 -1.699648 4.632356 21 22 16
-1.075517 -1.637771 4.727137 22 21 17
-1.095901 -1.611631 4.832016 20 21 16
-1.154830 -1.589272 5.140262 90 89 81
-1.157412 -1.584752 5.156603 140 133 121
-1.165975 -1.573664 5.202839 22 22 20
-1.199583 -1.584390 5.366684 123 116 98
-1.290004 -1.645824 5.797455 21 20 16
-1.291842 -1.594096 5.809977 132 124 110
-1.323359 -1.578937 5.973247 20 22 21
-1.754053 -1.500501 8.099781 16 16 18
-1.880055 -1.452191 8.705837 14 12 15
-1.927555 -1.425905 8.947929 12 12 15
-1.955960 -1.386875 9.098648 11 9 12
-1.975393 -1.375160 9.178412 16 14 15
-1.455022 -4.057161 6.558841 23 16 9
-0.790827 -2.017912 3.544703 212 158 124
-0.606795 -1.308164 2.644581 138 83 50
-0.607687 -1.235284 2.637200 203 153 116
-0.641014 -1.240147 2.781490 180 127 85
-1.107158 -1.879229 4.817164 92 76 55
-1.113917 -1.872268 4.853395 27 26 20
-1.067699 -1.764770 4.659970 29 29 21
-1.067139 -1.733424 4.664178 23 23 21
-1.067104 -1.726002 4.666565 25 23 20
-1.276368 -1.647084 5.735591 24 23 20
-1.280260 -1.644916 5.756757 26 25 21
-1.291845 -1.644161 5.811945 21 20 16
-1.734053 -1.521284 7.997011 150 147 128
-1.763807 -1.472633 8.150138 12 11 11
-1.842181 -1.468509 8.522971 58 57 53
-1.871398 -1.456243 8.670906 17 13 15
-1.883085 -1.440107 8.731890 15 14 20
-1.918726 -1.426359 8.912067 13 13 15
-1.943937 -1.404261 9.042791 16 10 14
-1.968385 -1.363096 9.162982 13 11 12
1.966658 5.201226 -8.231555 99 82 38
-0.832042 -2.183183 3.753430 88 60 36
-0.615785 -1.318467 2.683907 183 125 88
-0.616528 -1.278054 2.682091 133 71 34
-0.660859 -1.261217 2.869972 187 134 92
-1.118250 -1.982620 4.860220 111 68 23
-1.135106 -1.983571 4.932789 181 135 89
-1.063857 -1.748612 4.652503 24 23 18
-1.065778 -1.731998 4.664995 23 22 20
-1.066825 -1.724473 4.673027 24 25 20
-1.076384 -1.693838 4.725147 22 23 17
-1.066961 -1.587358 4.705199 20 21 16
-1.113100 -1.606039 4.937598 92 64 55
-1.140948 -1.584016 5.086836 118 109 98
-1.155834 -1.575335 5.168365 22 22 20
-1.190541 -1.582027 5.333998 84 76 63
-1.271304 -1.592194 5.726020 19 18 16
-1.659057 -1.549399 7.635093 23 22 18
-1.656866 -1.539042 7.626001 17 17 15
-1.681525 -1.545184 7.750827 20 20 20
-1.893751 -1.439346 8.797245 14 12 17
-1.933803 -1.414511 8.999745 17 12 16
-1.950216 -1.385171 9.085971 12 10 13
-0.843234 -2.219876 3.809043 72 50 30
-0.654130 -1.607963 2.915223 224 173 142
-0.623044 -1.406565 2.736775 182 134 101
-0.624535 -1.405235 2.740469 186 137 102
-0.614744 -1.286250 2.678133 183 125 88
-0.606988 -1.239235 2.640451 210 157 120
-1.102870 -1.868425 4.812104 34 30 21
-1.114534 -1.874728 4.863439 32 32 24
-1.055586 -1.695116 4.630782 22 23 16
-1.060327 -1.693661 4.655223 23 23 16
-1.070441 -1.691425 4.704542 24 24 16
-1.093036 -1.665169 4.825444 20 21 16
-1.088218 -1.605216 4.819137 22 23 18
-1.101254 -1.603180 4.886594 153 133 120
-1.116138 -1.573126 4.973538 22 22 22
-1.122931 -1.576608 5.008580 24 24 22
-1.323153 -1.581914 5.991321 23 23 23
-1.751756 -1.494439 8.114723 10 10 10
-1.852193 -1.460727 8.596379 13 11 11
-1.890802 -1.442242 8.791430 11 11 13
-1.902373 -1.429098 8.853177 16 16 18
-0.822130 -2.158415 3.714967 86 56 31
-0.756955 -1.959127 3.411702 201 148 116
-0.750779 -1.939828 3.382826 205 152 120
-0.627476 -1.495489 2.782233 213 160 129
-0.608833 -1.424933 2.691858 144 104 69
-0.599339 -1.309000 2.622181 184 135 102
-0.614003 -1.258278 2.673896 214 160 124
-0.639579 -1.248192 2.783562 186 127 87
-1.116165 -1.972881 4.862675 148 105 60
-1.060781 -1.735718 4.650875 28 29 24
-1.061867 -1.716883 4.661625 22 23 18
-1.080233 -1.692827 4.754111 22 23 17
-1.062464 -1.647464 4.682444 21 22 17
-1.093667 -1.650052 4.841636 22 21 17
-1.079613 -1.602868 4.787036 20 20 15
-1.117928 -1.607843 4.971354 108 100 88
-1.157605 -1.569986 5.186615 21 21 19
-1.180440 -1.577445 5.296615 115 107 89
-1.259885 -1.635004 5.678133 25 24 20
-1.280707 -1.631715 5.779412 19 18 14
-1.267849 -1.587934 5.726306 21 21 19
-1.650190 -1.534050 7.613221 18 18 16
-1.672445 -1.542656 7.728895 16 16 16
-1.680958 -1.536782 7.767336 13 13 13
-1.719501 -1.526226 7.961493 186 179 160
-1.735393 -1.472049 8.058626 14 14 12
-1.859574 -1.462980 8.642354 16 12 13
-1.890681 -1.435738 8.807120 17 17 19
-1.928120 -1.415580 8.999028 16 14 17
-1.931789 -1.412099 9.010067 15 10 14
-1.937671 -1.400089 9.044618 13 8 14
-1.975473 -1.378404 9.234537 14 12 13
-0.769799 -2.000937 3.475525 196 146 113
-0.729049 -1.839440 3.267910 220 167 135
-0.635676 -1.499128 2.815715 171 123 87
-0.608897 -1.312400 2.664957 167 111 74
-1.135476 -1.987549 4.955131 186 142 97
-1.102795 -1.880257 4.819319 77 66 42
-1.057114 -1.737487 4.639913 24 23 18
-1.055288 -1.694046 4.640898 24 25 17
-1.050716 -1.636300 4.639186 22 21 17
-1.056947 -1.637418 4.670056 22 22 20
-1.140730 -1.583792 5.099540 122 114 102
-1.196289 -1.583871 5.385144 30 29 23
-1.333989 -1.589806 6.057629 21 19 21
-1.932785 -1.437098 9.018136 12 12 12
-1.924990 -1.419061 8.994678 19 17 18
-1.939380 -1.380172 9.071636 13 12 14
-1.956715 -1.381214 9.145601 10 10 10
-0.848164 -2.249775 3.847070 38 22 11
-0.606640 -1.420141 2.685533 134 96 60
-0.596347 -1.295888 2.613294 102 52 22
-0.611239 -1.284516 2.671726 188 130 93
-0.613249 -1.282302 2.678078 164 104 68
-0.600085 -1.220819 2.618496 205 154 117
-0.640910 -1.272074 2.794047 144 68 48
-0.645509 -1.271685 2.813760 186 110 84
-1.060195 -1.770731 4.647608 31 29 22
-1.060464 -1.764144 4.653313 30 30 22
-1.065729 -1.693213 4.699875 25 24 17
-1.071843 -1.687573 4.729627 19 20 14
-1.123358 -1.609904 5.011718 27 25 26
-1.159110 -1.569868 5.207339 21 21 19
-1.163238 -1.570216 5.227486 22 23 18
-1.255680 -1.645528 5.669609 24 25 19
-1.282312 -1.590893 5.805088 171 163 150
-1.293259 -1.593919 5.862826 23 23 22
-1.319966 -1.606283 5.987020 20 20 18
-1.680243 -1.537751 7.776504 18 18 18
-1.814124 -1.464270 8.445387 76 70 67
-1.857008 -1.456122 8.659813 17 13 15
-1.816976 -1.402989 8.461470 15 14 16
-1.931620 -1.391570 9.045896 14 13 18
-0.834213 -2.202615 3.784042 72 46 24
-0.758961 -1.974142 3.433388 198 145 113
-0.746979 -1.935986 3.377600 204 151 119
-0.722744 -1.840933 3.252626 217 164 130
-0.594400 -1.202593 2.595528 198 143 108
-0.632729 -1.264987 2.761078 120 54 28
-0.637360 -1.244853 2.783460 185 132 88
-1.057672 -1.765083 4.646415 27 27 19
-1.058769 -1.755244 4.652634 24 24 16
-1.049529 -1.705659 4.622587 23 22 18
-1.049795 -1.693735 4.628784 25 26 18
-1.064815 -1.641038 4.715917 20 20 18
-1.100985 -1.565820 4.924899 20 20 18
-1.288728 -1.592197 5.848147 24 24 23
-1.652370 -1.533368 7.658226 15 15 15
-1.749696 -1.471331 8.143040 13 12 9
-1.815805 -1.445602 8.467745 14 12 12
-1.964082 -1.324043 9.220285 10 9 12
-0.828655 -2.187257 3.762037 69 39 16
-0.624475 -1.494689 2.781490 206 152 124
-0.608076 -1.289026 2.665291 200 140 104
-0.598186 -1.227364 2.615540 213 161 124
-0.597295 -1.224125 2.611243 210 160 124
-0.639796 -1.272011 2.794922 161 86 62
-0.662606 -1.268578 2.896382 176 123 81
-0.664342 -1.266789 2.903866 189 136 94
-1.114845 -1.998875 4.877852 113 72 27
-1.130029 -1.997456 4.947508 173 131 83
-1.098570 -1.861814 4.822711 31 30 23
-1.056729 -1.636716 4.686860 21 20 18
-1.077399 -1.652302 4.784201 19 20 15
-1.077133 -1.626928 4.789950 19 19 17
-1.099627 -1.603727 4.903850 80 44 38
-1.107379 -1.607212 4.943442 108 94 81
-1.121871 -1.609135 5.013941 25 24 23
-1.319796 -1.603147 6.003187 21 21 19
-1.635147 -1.559187 7.572262 63 54 48
-1.693897 -1.533393 7.868704 126 121 104
-1.746248 -1.494248 8.148026 10 12 9
-1.768518 -1.472174 8.246404 128 116 97
-1.773005 -1.470131 8.269469 131 120 96
-1.828636 -1.452655 8.540149 14 12 14
-1.935670 -1.424415 9.079720 17 12 16
-1.531638 -4.359228 6.979409 94 78 45
-1.508937 -4.268293 6.869946 83 69 39
-0.769036 -2.015073 3.490451 178 132 98
-0.736547 -1.909930 3.335512 205 152 118
-0.589501 -1.291504 2.592806 182 134 99
-0.606637 -1.268223 2.657917 139 75 39
-0.609079 -1.264729 2.666448 173 112 75
-0.596275 -1.215151 2.609621 203 150 111
-0.595879 -1.213776 2.608361 200 148 109
-0.594188 -1.202705 2.599352 192 138 100
-0.639076 -1.266005 2.795578 187 113 86
-0.636139 -1.248998 2.783000 179 119 79
-0.636720 -1.245481 2.784895 185 131 87
-1.068454 -1.642440 4.745528 23 24 19
-1.052147 -1.563580 4.704631 19 20 15
-1.084457 -1.598209 4.841630 21 20 18
-1.111215 -1.607603 4.971116 120 113 101
-1.154468 -1.568374 5.206697 21 21 19
-1.270083 -1.587415 5.774302 70 64 58
-1.324138 -1.587857 6.040482 19 17 18
-1.494517 -1.569355 6.901083 135 127 111
-1.653911 -1.557505 7.669778 19 17 14
-1.664276 -1.561148 7.720181 15 15 12
-1.777305 -1.468764 8.294999 75 65 51
-1.967354 -1.491039 9.248277 12 13 15
-1.958412 -1.434371 9.206465 12 7 13
-1.953048 -1.383437 9.174803 12 12 12
-1.000332 -2.679363 4.560528 29 18 12
-0.761338 -1.990463 3.457350 187 137 104
-0.709768 -1.818996 3.206924 216 164 127
-0.722073 -1.832119 3.255306 219 169 136
-0.673458 -1.678349 3.025356 218 168 135
-0.628148 -1.492826 2.799145 168 119 87
-0.588099 -1.286503 2.591367 76 32 7
-0.597300 -1.300778 2.627738 155 104 67
-0.606829 -1.310823 2.667483 150 94 57
-0.637274 -1.261418 2.790686 188 118 88
-1.146512 -2.015478 5.029245 191 147 102
-1.187487 -2.069387 5.209565 203 160 115
-1.060587 -1.635733 4.714066 21 22 17
-1.078606 -1.613162 4.801030 22 21 17
-1.121096 -1.608481 5.027409 26 27 22
-1.145475 -1.562845 5.176832 22 22 19
-1.332678 -1.639329 6.060886 18 20 17
-1.298978 -1.591730 5.925511 18 18 16
-1.325996 -1.587818 6.056123 19 16 17
-1.533294 -1.555756 7.097535 164 155 138
-1.560392 -1.558171 7.226275 139 132 110
-1.656794 -1.558767 7.690189 15 16 11
-1.737172 -1.504469 8.116939 15 15 13
-1.931597 -1.375256 9.084189 9 9 9
-0.609557 -1.354750 2.693922 200 147 113
-0.602042 -1.275175 2.647283 185 125 91
-0.628729 -1.260668 2.756303 110 46 21
-0.628439 -1.258771 2.757470 106 39 17
-0.635179 -1.266461 2.783383 147 76 50
-0.635766 -1.257018 2.788233 190 124 92
-0.656742 -1.266430 2.881389 183 130 86
-1.137872 -2.007589 4.999696 193 150 105
-1.154166 -2.018404 5.068768 200 157 112
-1.057302 -1.754709 4.669694 26 23 16
-1.062267 -1.758611 4.691477 30 26 21
-1.045229 -1.630949 4.647376 22 21 19
-1.105618 -1.569852 4.973197 22 24 21
-1.152891 -1.587420 5.199223 22 23 18
-1.176235 -1.578028 5.326648 40 37 28
-1.290125 -1.594409 5.883186 20 22 19
-1.307139 -1.590305 5.967933 17 17 15
-1.310621 -1.581026 5.990666 18 18 17
-1.335431 -1.580855 6.114083 70 51 46
-1.354754 -1.586527 6.204405 161 155 139
-1.631219 -1.558206 7.583681 141 138 122
-1.669190 -1.556086 7.760649 16 16 16
-1.677573 -1.540085 7.811091 15 14 13
-1.743846 -1.501954 8.155249 14 16 13
-1.725113 -1.472948 8.073933 12 14 11
-1.868886 -1.470431 8.756468 10 8 11
-1.843221 -1.421153 8.640128 14 14 14
-0.742459 -1.937446 3.376908 195 141 107
-0.645363 -1.607496 2.906857 225 172 139
-0.609574 -1.466966 2.728356 206 155 126
-0.613990 -1.474519 2.746022 205 154 123
-1.100061 -1.987043 4.833253 116 73 29
-1.043550 -1.692720 4.624002 21 22 16
-1.056687 -1.638307 4.707467 18 19 14
-1.135581 -1.581774 5.122669 20 18 13
-1.184245 -1.580231 5.373093 51 47 39
-1.510687 -1.570325 6.995844 151 144 126
-1.528131 -1.564686 7.084722 149 140 127
-1.534718 -1.554661 7.114449 109 102 89
-1.542533 -1.548712 7.152920 100 94 78
-1.742456 -1.475222 8.157757 17 18 13
-1.752008 -1.477112 8.202613 20 21 15
-1.762264 -1.474280 8.252659 143 131 108
-1.466704 -4.141285 6.699343 20 16 5
-1.475562 -4.130113 6.727636 19 14 10
-0.709770 -1.816400 3.215209 214 164 127
-0.701361 -1.779372 3.172182 222 172 139
-0.675439 -1.706675 3.055811 220 167 135
-0.620980 -1.478497 2.775215 166 119 89
-0.607206 -1.368483 2.688845 193 140 106
-0.583830 -1.282940 2.577714 170 124 91
-0.599438 -1.305025 2.644488 148 95 56
-0.591779 -1.210235 2.601643 201 149 110
-0.632825 -1.259845 2.780625 181 112 81
-1.109005 -1.983372 4.875986 164 121 76
-1.050627 -1.756137 4.643362 31 28 21
-1.032654 -1.700724 4.574239 23 22 17
-1.038700 -1.697078 4.604987 25 24 20
-1.040729 -1.694134 4.614485 23 22 17
-1.053198 -1.636726 4.695249 20 21 16
-1.089500 -1.636619 4.865073 20 19 15
-1.096361 -1.604032 4.922330 90 78 64
-1.117526 -1.607058 5.030821 23 24 18
-1.110844 -1.592987 5.001284 22 23 18
-1.140397 -1.583501 5.150035 160 151 135
-1.214215 -1.574814 5.528242 181 174 163
-1.218795 -1.572173 5.550249 171 165 152
-1.225964 -1.576077 5.583175 158 152 139
-1.252114 -1.582057 5.711139 156 153 144
-1.264876 -1.583880 5.776753 135 127 118
-1.283842 -1.583868 5.873517 19 21 18
-1.323596 -1.578241 6.070426 133 120 110
-1.613596 -1.560226 7.508646 80 76 66
-1.684796 -1.531076 7.873287 139 134 119
-1.706199 -1.523933 7.978489 19 18 14
-1.791629 -1.466138 8.401416 126 115 95
-1.827814 -1.408261 8.592566 12 12 12
-1.993922 -1.240958 9.459629 8 6 9
-0.718649 -1.866875 3.269987 200 150 110
-0.670193 -1.691981 3.034210 221 168 136
-0.669519 -1.685265 3.028805 223 170 138
-0.621325 -1.455437 2.771936 81 50 22
-0.621630 -1.452566 2.771809 59 29 4
-0.625035 -1.449772 2.783055 140 96 63
-0.618447 -1.409026 2.745843 166 112 80
-0.613558 -1.391389 2.722307 174 121 87
-0.601200 -1.264911 2.649460 147 82 49
-0.600775 -1.257702 2.644549 164 101 65
-0.588232 -1.209948 2.589646 207 158 120
-1.099110 -1.981971 4.840197 126 84 36
-1.140767 -2.010101 5.024738 198 154 109
-1.180985 -2.064584 5.209965 211 169 121
-1.094640 -1.886215 4.831701 99 72 42
-1.088379 -1.864543 4.805455 33 30 22
-1.099157 -1.866471 4.862857 32 29 24
-1.050792 -1.749121 4.650374 26 23 16
-1.045224 -1.696890 4.642830 24 25 18
-1.052411 -1.693300 4.674050 23 23 15
-1.054082 -1.687026 4.685761 22 23 16
-1.062723 -1.644122 4.746811 23 24 19
-1.146442 -1.569137 5.200705 24 24 24
-1.194673 -1.569433 5.436550 164 154 142
-1.207708 -1.577165 5.499365 161 150 142
-1.209393 -1.573648 5.504597 178 169 161
-1.308393 -1.581588 5.999668 16 14 15
-1.648199 -1.559201 7.691036 16 16 14
-1.783496 -1.467084 8.376875 51 39 34
-1.927729 -1.365149 9.109712 14 13 11
-0.749391 -1.965979 3.422248 190 137 103
-0.653224 -1.632717 2.948702 226 173 141
-0.601746 -1.274561 2.655371 165 105 71
-0.584980 -1.208982 2.576775 212 160 123
-0.623597 -1.259276 2.746871 133 74 44
-1.127695 -2.000429 4.972740 196 154 106
-1.053572 -1.751167 4.674433 29 26 21
-1.063050 -1.582587 4.779962 22 23 18
-1.086555 -1.600599 4.885936 154 142 127
-1.117639 -1.574232 5.054921 21 22 17
-1.166245 -1.574116 5.302461 170 163 148
-1.202033 -1.574916 5.476302 115 107 100
-1.210692 -1.569090 5.520426 59 54 48
-1.702771 -1.487373 7.996864 18 18 16
-1.729890 -1.498017 8.122614 16 18 13
-1.764479 -1.472241 8.289722 74 63 45
-1.813064 -1.450936 8.534859 15 14 16
-1.882885 -1.421443 8.877551 16 16 17
-1.927493 -1.386612 9.116538 12 12 12
-1.933647 -1.381872 9.144015 12 12 11
-1.484511 -4.225668 6.811422 68 57 36
-1.407124 -3.945896 6.443749 20 15 11
-0.699173 -1.806798 3.181770 205 155 118
-0.609145 -1.473497 2.739938 205 154 123
-0.600173 -1.274829 2.651485 174 115 79
-0.631485 -1.255629 2.783868 179 117 81
-1.091954 -1.992328 4.814425 110 66 27
-1.040527 -1.754941 4.615911 36 33 26
-1.042266 -1.753173 4.622386 30 27 20
-1.042607 -1.751900 4.624263 32 29 22
-1.045254 -1.749518 4.638783 25 22 17
-1.034179 -1.684601 4.601080 25 25 19
-1.049039 -1.632302 4.695279 22 23 18
-1.105593 -1.571218 5.003892 22 23 18
-1.172947 -1.577305 5.344143 95 88 77
-1.189383 -1.582701 5.418211 156 150 132
-1.275805 -1.584005 5.852450 19 21 18
-1.278875 -1.582595 5.869071 19 21 18
-1.333269 -1.579461 6.138242 144 134 124
-1.795386 -1.456526 8.450870 19 18 16
-0.715238 -1.865825 3.265753 206 155 115
-0.695653 -1.772627 3.159540 220 170 137
-0.694059 -1.767561 3.152550 219 169 136
-0.582182 -1.279942 2.582009 88 47 18
-0.602076 -1.258013 2.660910 216 158 119
-0.602499 -1.254720 2.661544 215 160 121
-1.032758 -1.706555 4.596464 24 24 17
-1.051817 -1.678700 4.695784 20 21 16
-1.056971 -1.678600 4.719281 21 22 17
-1.109513 -1.608036 5.011403 24 25 20
-1.110536 -1.605842 5.014761 24 25 19
-1.106430 -1.589004 5.006626 22 23 18
-1.142150 -1.580169 5.194163 21 20 19
-1.177171 -1.578940 5.365207 120 114 105
-1.288954 -1.584525 5.920485 20 18 19
-1.299345 -1.589931 5.975771 20 18 19
-1.311338 -1.590219 6.031088 17 15 16
-1.627904 -1.557573 7.621527 16 15 13
-1.655723 -1.536908 7.766391 18 16 17
-1.754330 -1.474472 8.264482 170 158 134
-1.812039 -1.408298 8.558417 15 15 15
-1.963268 -1.362062 9.327388 13 11 14
-1.391586 -3.905213 6.386410 17 12 8
-0.656604 -1.652681 2.979008 217 164 132
-0.660011 -1.611973 2.975634 226 179 149
-0.594009 -1.302931 2.636999 177 125 86
-0.631189 -1.255292 2.788562 184 126 88
-1.089324 -1.998362 4.812340 106 64 26
-1.090639 -1.983600 4.821682 124 80 35
-1.096985 -1.979554 4.847034 153 111 63
-1.100518 -1.974951 4.866348 179 136 91
-1.117647 -1.990853 4.946838 192 148 103
-1.134170 -2.003160 5.020512 205 163 114
-1.041476 -1.720275 4.640101 24 24 17
-1.023962 -1.680948 4.564895 22 21 16
-1.026420 -1.682760 4.573643 24 23 18
-1.037396 -1.684070 4.625194 21 22 14
-1.047781 -1.675823 4.683520 22 23 18
-1.073390 -1.620014 4.830446 24 23 19
-1.113559 -1.572162 5.058260 19 20 15
-1.135563 -1.581809 5.165130 19 21 16
-1.315402 -1.585919 6.064548 82 73 67
-1.340453 -1.571980 6.199621 23 19 19
-1.490458 -1.564821 6.954844 19 19 16
-1.556272 -1.557059 7.280131 20 19 17
-1.649839 -1.543072 7.750809 21 19 20
-1.661126 -1.537077 7.801205 16 15 13
-1.774961 -1.466692 8.379625 143 135 117
-1.877782 -1.400895 8.894094 12 10 13
-1.504725 -4.324348 6.937396 72 54 18
-0.710816 -1.826428 3.239501 222 172 137
-0.691490 -1.764739 3.148144 218 168 135
-0.662476 -1.671900 3.009351 221 168 136
-0.617825 -1.492045 2.783230 199 150 120
-0.614905 -1.476037 2.766269 164 119 90
-0.577798 -1.284504 2.570430 199 146 110
-0.597619 -1.262677 2.646681 197 137 100
-0.625406 -1.259099 2.764755 121 60 32
-0.626055 -1.255255 2.769678 186 123 88
-0.643657 -1.255121 2.847981 182 131 87
-1.118986 -1.991018 4.956625 193 149 104
-1.037238 -1.743377 4.616734 28 25 20
-1.040313 -1.743285 4.629668 33 28 24
-1.048915 -1.741169 4.674656 22 22 14
-1.058324 -1.591811 4.770178 19 20 15
-1.069671 -1.594124 4.832030 25 24 20
-1.086109 -1.602776 4.911879 164 157 137
-1.092482 -1.605962 4.941147 140 133 115
-1.097782 -1.583909 4.979846 24 25 20
-1.126468 -1.578149 5.126337 21 22 18
-1.468917 -1.561540 6.852726 24 19 19
-1.630547 -1.556291 7.658251 18 17 15
-1.664579 -1.534939 7.828998 14 14 12
-1.687206 -1.531417 7.943826 17 17 14
-1.697674 -1.524975 7.987052 18 17 15
-1.785565 -1.448308 8.450214 13 13 15
-0.697747 -1.787755 3.180592 219 168 135
-0.589114 -1.267735 2.615677 192 134 97
-0.598290 -1.272324 2.652993 195 136 101
-0.630410 -1.254084 2.791564 191 137 98
-1.094420 -1.959810 4.853446 186 143 99
-1.163127 -2.044302 5.163540 212 170 122
-1.042386 -1.740290 4.649240 28 26 21
-1.030656 -1.683730 4.604774 23 24 18
-1.110723 -1.609473 5.033259 21 20 16
-1.113110 -1.571715 5.066155 22 23 18
-1.135259 -1.581156 5.171945 22 24 19
-1.271949 -1.583092 5.861079 14 16 14
-1.278579 -1.584876 5.896428 20 20 20
-1.322380 -1.578841 6.116236 88 75 68
-1.475145 -1.537167 6.895720 17 17 15
-1.491266 -1.544564 6.972755 17 16 12
-1.501874 -1.546513 7.028662 21 20 16
-1.592676 -1.560822 7.477124 20 18 19
-1.604803 -1.558627 7.537088 15 15 14
-1.665810 -1.573981 7.822539 17 14 15
-1.919275 -1.394595 9.127642 13 11 13
-1.918595 -1.388660 9.124982 17 15 16
-1.665709 -4.828256 7.677129 101 83 47
-1.497702 -4.315392 6.917319 78 60 24
-0.678463 -1.674490 3.072428 227 178 148
-0.666096 -1.641605 3.017209 233 184 154
-0.603212 -1.464232 2.725664 201 150 119
-0.608833 -1.394981 2.723516 161 108 76
-0.623351 -1.264787 2.760894 122 66 33
-0.623374 -1.259222 2.763137 123 63 35
-0.637961 -1.253613 2.829195 185 133 95
-1.082304 -1.996685 4.797367 107 64 29
-1.086394 -1.967631 4.815226 157 114 67
-1.027359 -1.746947 4.580475 30 27 20
-1.058733 -1.615744 4.770129 18 20 15
-1.100841 -1.609604 4.994226 23 23 20
-1.110053 -1.570216 5.053884 19 20 15
-1.210506 -1.565483 5.566666 21 19 20
-1.219238 -1.569813 5.605255 22 20 21
-1.221597 -1.570900 5.623422 23 23 23
-1.236971 -1.572825 5.699746 23 23 21
-1.263909 -1.581930 5.829195 19 19 17
-1.291451 -1.589339 5.957830 21 19 20
-1.478470 -1.539007 6.917177 18 18 16
-1.495473 -1.546355 7.003668 20 19 17
-1.599368 -1.558937 7.511315 18 17 16
-1.624945 -1.555607 7.645501 21 20 18
-1.674709 -1.531911 7.900258 16 15 13
-1.699642 -1.499989 8.023478 16 14 15
-1.761900 -1.471009 8.339573 55 48 32
-1.786967 -1.451571 8.465544 11 11 13
-1.809133 -1.408255 8.580066 9 9 11
-1.893702 -1.400235 9.022518 9 7 10
-1.912986 -1.395361 9.114611 13 12 12
-1.887916 -1.270729 9.019033 10 8 11
-1.484070 -4.264068 6.859253 71 56 25
-1.457199 -4.162924 6.730237 25 20 7
-1.395921 -3.943705 6.438213 14 11 6
-0.695996 -1.797627 3.182934 215 165 130
-0.663810 -1.687110 3.028822 218 163 133
-0.608348 -1.409132 2.730360 149 103 67
-0.587891 -1.215357 2.611377 199 151 111
-0.595523 -1.223292 2.641426 187 138 97
-0.637256 -1.254210 2.827009 179 125 87
-0.638250 -1.252067 2.833143 178 126 86
-1.091034 -1.960933 4.849525 187 145 101
-1.105517 -1.978765 4.912839 194 150 105
-1.083351 -1.868759 4.828421 31 26 21
-0.968466 -1.565455 4.350189 24 25 19
-1.039869 -1.675099 4.664341 21 22 17
-1.044392 -1.667599 4.690733 20 19 15
-1.096233 -1.567901 4.989495 24 25 20
-1.133770 -1.576123 5.181498 20 22 17
-1.133481 -1.563572 5.188305 19 19 17
-1.338703 -1.568188 6.219211 21 19 20
-1.508678 -1.547872 7.078598 17 16 14
-1.514647 -1.548281 7.109395 19 18 16
-1.543454 -1.562668 7.249306 15 14 12
-1.593787 -1.570357 7.498321 16 16 16
-1.588011 -1.558739 7.474154 19 19 19
-1.652617 -1.533849 7.806114 19 19 17
-1.794372 -1.410510 8.513068 11 11 13
-1.881086 -1.406976 8.970195 13 11 15
-1.929987 -1.351164 9.216967 9 9 11
-0.693913 -1.792441 3.178213 219 169 134
-0.649255 -1.592113 2.943792 221 174 143
-0.585632 -1.224263 2.601927 218 165 125
-0.586947 -1.217245 2.609321 204 156 116
-1.140038 -2.013285 5.074561 207 165 117
-1.131705 -1.559797 5.188316 22 22 20
-1.156652 -1.570532 5.311584 22 21 17
-1.160645 -1.547263 5.335571 20 19 17
-1.233365 -1.568279 5.695138 23 23 21
-1.240454 -1.570216 5.732216 21 21 19
-1.281625 -1.592698 5.931494 21 21 21
-1.520874 -1.551852 7.146441 17 17 15
-1.709985 -1.482522 8.118268 15 15 13
-1.745039 -1.474847 8.271746 73 67 55
-1.496634 -4.268437 6.922387 20 15 10
-0.643735 -1.630475 2.939942 219 164 133
-0.649652 -1.598810 2.949926 224 177 147
-0.589124 -1.242880 2.622847 220 166 122
-0.574193 -1.200193 2.554402 217 165 125
-0.587593 -1.217212 2.613942 197 149 109
-0.617364 -1.261866 2.745695 161 109 70
-0.623998 -1.250681 2.774594 200 146 104
-1.111332 -1.984412 4.947837 195 151 106
-1.027829 -1.712854 4.609725 26 27 19
-1.018832 -1.678876 4.568758 23 22 17
-1.027499 -1.691012 4.613077 24 23 18
-1.025930 -1.681328 4.602929 22 23 17
-1.035967 -1.663966 4.660894 20 19 15
-1.046399 -1.626086 4.725101 19 19 17
-1.093886 -1.564659 4.995298 19 20 15
-1.133781 -1.560635 5.205170 22 22 20
-1.141725 -1.564088 5.246633 21 20 18
-1.161599 -1.572739 5.342979 22 21 19
-1.602822 -1.555145 7.563409 15 15 15
-1.651024 -1.533503 7.806556 15 16 13
-1.679531 -1.530708 7.946326 14 14 12
-1.683976 -1.529380 7.979917 15 14 12
-1.810798 -1.451214 8.599405 16 14 17
-1.792348 -1.405220 8.530405 11 11 13
-1.963996 -1.261032 9.422824 11 10 12
-1.481264 -4.298491 6.874676 104 86 48
-1.498186 -4.333474 6.955735 81 62 28
-0.685316 -1.766392 3.144724 215 162 131
-0.610492 -1.478463 2.766083 183 136 110
-0.602317 -1.398038 2.711949 127 80 45
-0.604096 -1.388904 2.713830 168 115 85
-0.560375 -1.250702 2.509252 200 148 114
-0.597795 -1.314447 2.671480 182 126 89
-0.592774 -1.270798 2.643371 217 158 124
-0.592676 -1.264074 2.641348 214 158 120
-0.588607 -1.247947 2.623296 220 162 120
-0.587838 -1.243938 2.619294 218 161 118
-1.039182 -1.639675 4.689602 24 25 20
-1.041157 -1.635118 4.702633 20 21 16
-1.088702 -1.605328 4.960067 23 23 21
-1.127278 -1.575861 5.171636 17 19 14
-1.128146 -1.568855 5.176693 17 19 14
-1.136643 -1.562010 5.225187 20 19 17
-1.144763 -1.565269 5.263618 24 21 19
-1.177753 -1.554360 5.434976 21 21 19
-1.188439 -1.558439 5.482288 20 18 19
-1.517989 -1.552685 7.146673 20 20 18
-1.595883 -1.556240 7.533595 16 16 17
-1.617656 -1.553391 7.650522 18 17 15
-1.628881 -1.533938 7.715099 21 20 18
-1.710980 -1.478949 8.142868 19 19 19
-1.723209 -1.480163 8.192523 15 15 13
-1.726683 -1.480210 8.205949 15 15 13
-1.498703 -4.339432 6.960809 82 64 28
-1.481490 -4.265872 6.876429 66 54 28
-0.692536 -1.804899 3.187515 214 164 128
-0.691803 -1.800929 3.182980 208 158 123
-0.687975 -1.779959 3.162557 216 163 132
-0.665577 -1.673269 3.041196 222 168 134
-0.655673 -1.641831 2.993822 224 174 141
-0.655378 -1.634228 2.991028 231 181 148
-0.612370 -1.491814 2.782302 200 150 123
-0.604151 -1.455566 2.737500 118 79 55
-0.601201 -1.389427 2.706537 177 126 95
-0.598507 -1.371363 2.690452 170 115 84
-0.548585 -1.232150 2.460267 206 149 114
-0.617065 -1.255743 2.748609 106 49 19
-0.617585 -1.251430 2.751683 185 129 93
-1.109596 -1.979976 4.954515 201 157 111
-1.115492 -1.958515 4.984231 209 168 124
-1.117490 -1.953297 4.998141 132 100 74
-1.070420 -1.841509 4.796340 35 31 27
-1.032880 -1.730056 4.638958 26 26 18
-1.031407 -1.666643 4.648307 22 21 17
-1.047844 -1.611184 4.747775 16 18 15
-1.086667 -1.570017 4.968819 21 21 19
-1.091831 -1.561682 4.993311 22 23 18
-1.108224 -1.566663 5.082337 21 23 20
-1.146420 -1.542891 5.283415 24 23 24
-1.167133 -1.545137 5.384704 20 20 18
-1.270042 -1.588388 5.898151 20 18 19
-1.345633 -1.574087 6.281460 17 17 17
-1.370628 -1.590037 6.406643 14 14 14
-1.608481 -1.554615 7.607855 17 15 16
-1.630271 -1.532666 7.731311 16 16 14
-1.638699 -1.532104 7.768748 18 18 18
-1.773689 -1.464861 8.449700 15 14 12
-1.808056 -1.452837 8.613311 16 14 17
-1.915397 -1.352565 9.191631 12 12 14
-1.484027 -4.310223 6.894718 98 80 42
-0.594896 -1.460527 2.710692 212 161 130
-1.138717 -2.015739 5.091189 216 172 125
-1.023207 -1.729901 4.595487 29 28 23
-1.056710 -1.594450 4.809797 16 17 12
-1.080044 -1.573114 4.940674 25 25 23
-1.087844 -1.569684 4.982211 22 23 18
-1.098279 -1.561275 5.041884 19 19 17
-1.111915 -1.568655 5.103281 21 23 20
-1.127607 -1.558397 5.195048 19 19 17
-1.147372 -1.541369 5.297514 24 24 23
-1.214135 -1.565094 5.629343 25 25 23
-1.279971 -1.591016 5.952202 18 18 18
-1.328211 -1.582764 6.202342 21 22 17
-1.665737 -1.588733 7.888801 15 15 15
-1.637825 -1.529976 7.777715 15 16 14
-1.655064 -1.527797 7.866678 14 16 13
-1.809912 -1.454362 8.634992 13 11 14
-1.910921 -1.483809 9.171131 13 13 17
-1.880775 -1.402494 9.033628 12 10 15
-1.479807 -4.242426 6.875722 17 13 4
-0.601429 -1.384625 2.710575 163 108 78
-0.593204 -1.350926 2.669693 198 141 111
-0.615339 -1.253135 2.746717 122 66 34
-1.015383 -1.735613 4.562299 32 32 25
-1.016903 -1.731530 4.569057 27 26 21
-1.026654 -1.709942 4.627852 22 23 17
-1.035108 -1.634223 4.688982 21 22 17
-1.034514 -1.629318 4.689789 20 21 16
-1.089605 -1.559359 4.998543 22 23 18
-1.131252 -1.571880 5.214276 18 20 17
-1.124524 -1.557210 5.184595 20 20 18
-1.164830 -1.546574 5.385765 19 19 17
-1.328393 -1.583906 6.200555 21 22 17
-1.326506 -1.573888 6.209607 17 17 15
-1.658960 -1.524942 7.896573 14 16 13
-1.748451 -1.472619 8.339522 106 97 93
-1.761994 -1.466677 8.413750 18 17 15
-1.893589 -1.386251 9.103706 12 11 9
-0.660471 -1.698072 3.040237 214 159 128
-0.616044 -1.452260 2.788353 166 121 92
-0.576827 -1.221791 2.581897 222 169 126
-0.617013 -1.246063 2.759069 197 144 100
-1.116953 -2.001779 5.002744 201 157 110
-1.073009 -1.863920 4.818395 44 40 32
-1.016716 -1.730531 4.575241 26 25 20
-1.016414 -1.671491 4.593676 21 22 14
-1.038047 -1.618772 4.717565 20 22 19
-1.038239 -1.610492 4.718612 21 23 20
-1.051108 -1.596573 4.798180 18 18 16
-1.052616 -1.587263 4.806993 18 19 14
-1.056851 -1.589346 4.828155 19 20 15
-1.058994 -1.590579 4.838985 21 22 18
-1.063025 -1.592590 4.858722 21 21 19
-1.080892 -1.601233 4.947978 23 23 22
-1.086583 -1.561339 4.993219 19 21 16
-1.103332 -1.562927 5.076755 20 22 19
-1.139644 -1.564465 5.263378 21 21 19
-1.147753 -1.539577 5.312949 19 19 17
-1.206321 -1.566352 5.601615 26 24 25
-1.240748 -1.571244 5.772228 153 147 133
-1.291023 -1.597219 6.018966 20 20 20
-1.315796 -1.599193 6.143800 25 14 12
-1.519819 -1.555137 7.193347 14 16 13
-1.642751 -1.585680 7.810455 20 18 19
-1.639702 -1.526742 7.803279 13 16 12
-1.650578 -1.525214 7.861547 11 14 10
1.847485 5.027967 -7.957181 107 87 50
-1.475818 -4.279900 6.886348 61 46 17
-0.706074 -1.867287 3.274677 195 143 106
-0.695457 -1.829985 3.220137 213 163 126
-0.640130 -1.620689 2.938291 219 165 131
-0.585500 -1.256190 2.625031 216 158 121
-0.578123 -1.215049 2.587600 213 161 121
-0.610283 -1.256737 2.730611 167 120 78
-1.065925 -1.838729 4.801620 30 27 20
-1.018610 -1.720905 4.594699 29 29 24
-1.032268 -1.624225 4.694669 22 22 20
-1.041790 -1.609983 4.743629 22 22 20
-1.099179 -1.615473 5.035915 23 25 22
-1.082821 -1.570093 4.973313 21 21 19
-1.083755 -1.562451 4.983195 20 21 17
-1.087893 -1.561497 5.005565 21 23 18
-1.149236 -1.560949 5.316829 22 22 20
-1.188079 -1.560690 5.516134 152 141 130
-1.301012 -1.601919 6.074945 155 140 138
-1.636781 -1.519296 7.802283 15 20 16
-1.477267 -4.311521 6.907726 80 62 23
-1.465670 -4.243178 6.845152 51 42 20
-0.651163 -1.638586 2.990052 224 174 141
-0.640711 -1.598424 2.937418 227 178 146
-0.591309 -1.342854 2.667577 204 148 114
-0.581569 -1.246345 2.609480 220 162 124
-0.575246 -1.229327 2.582114 220 162 121
-0.586752 -1.225521 2.630258 201 152 112
-1.060603 -1.938542 4.757068 182 138 93
-1.015619 -1.709896 4.587706 23 24 16
-1.026951 -1.650578 4.665091 21 20 16
-1.022695 -1.625072 4.645451 21 22 18
-1.043610 -1.597892 4.776575 19 19 19
-1.071854 -1.597198 4.918906 19 18 19
-1.109999 -1.561271 5.125566 21 23 18
-1.121490 -1.554536 5.189364 19 19 19
-1.128727 -1.557689 5.224835 22 22 21
-1.488965 -1.549089 7.055429 146 136 126
-1.655521 -1.518131 7.897372 18 20 19
-1.776053 -1.458286 8.513897 13 13 15
-1.465892 -4.258257 6.856673 46 32 5
-0.644875 -1.616311 2.963193 226 174 143
-0.594442 -1.457826 2.719052 201 153 123
-0.599328 -1.400623 2.718759 149 99 73
-0.586150 -1.336765 2.647652 205 148 118
-0.575739 -1.215947 2.582331 220 166 124
-0.610086 -1.251480 2.735569 117 63 27
-0.615727 -1.246443 2.761808 199 148 103
-1.074417 -1.906961 4.832788 215 172 125
-1.057549 -1.858782 4.759475 94 72 51
-1.056536 -1.832055 4.768992 34 31 24
-1.015429 -1.693334 4.596757 22 21 16
-1.020084 -1.654049 4.632559 23 22 17
-1.022792 -1.623319 4.653979 16 17 12
-1.039281 -1.609352 4.745917 21 21 19
-1.048877 -1.585224 4.809914 21 22 17
-1.063281 -1.592549 4.878112 23 23 21
-1.097545 -1.554093 5.074851 20 20 18
-1.126025 -1.544734 5.219093 20 20 18
-1.129472 -1.542755 5.236879 20 20 18
-1.153983 -1.552586 5.359365 21 21 21
-1.236616 -1.570432 5.773812 57 52 45
-1.353428 -1.597256 6.363465 15 17 16
-1.708323 -1.479468 8.190851 11 11 11
-0.707943 -1.888800 3.298858 185 132 100
-0.685679 -1.803989 3.183341 210 160 125
-0.676242 -1.770193 3.134610 214 161 130
-0.590828 -1.437122 2.700377 92 57 31
-0.599234 -1.402020 2.719809 131 84 56
-0.597409 -1.320155 2.693110 165 105 71
-0.608702 -1.246210 2.733292 129 75 39
-1.121960 -2.018408 5.042547 193 149 102
-1.010114 -1.715925 4.569642 25 24 19
-1.012005 -1.699956 4.588600 23 24 17
-1.016536 -1.682250 4.611138 23 22 17
-1.017203 -1.661984 4.622656 21 19 14
-1.015076 -1.651504 4.615245 20 19 14
-1.034691 -1.608472 4.728893 22 22 20
-1.075882 -1.598785 4.947156 22 24 23
-1.073885 -1.563135 4.950929 23 23 21
-1.077240 -1.564874 4.969570 19 19 17
-1.083894 -1.560313 5.006125 19 21 16
-1.083102 -1.549390 5.002577 21 23 20
-1.112634 -1.553100 5.155982 21 23 20
-1.142055 -1.548644 5.304501 20 19 19
-1.188134 -1.561842 5.539441 116 105 105
-1.217608 -1.558077 5.691224 62 59 55
-1.330075 -1.595909 6.244256 23 23 21
-1.444006 -1.562209 6.842271 178 167 159
-1.585769 -1.578278 7.556688 15 15 18
-1.763359 -1.466375 8.469420 10 10 10
-1.895013 -1.353818 9.164645 12 14 16
-1.896394 -1.351778 9.170203 10 11 13
-1.904864 -1.349315 9.221132 11 12 14
-1.440941 -4.149195 6.742511 13 10 3
-0.697461 -1.848351 3.247586 199 147 110
-0.676007 -1.773811 3.139221 213 160 128
-0.646257 -1.661102 2.987695 217 163 129
-0.639912 -1.605177 2.944877 231 180 149
-0.631425 -1.575119 2.902814 220 171 141
-0.622691 -1.544602 2.858998 218 168 141
-0.572529 -1.214875 2.573840 220 167 126
-0.585034 -1.226711 2.629663 200 148 109
-0.601256 -1.247209 2.704156 178 131 89
-1.009376 -1.714035 4.573493 31 30 25
-1.010193 -1.712991 4.577379 30 30 25
-1.017208 -1.692150 4.616653 23 22 17
-1.018160 -1.689668 4.622335 23 22 17
-0.931818 -1.535122 4.241448 23 24 18
-1.021078 -1.651901 4.647837 21 20 16
-1.034457 -1.608156 4.732411 21 21 19
-1.052634 -1.586071 4.838939 21 21 19
-1.062762 -1.591566 4.888393 22 22 21
-1.075841 -1.597004 4.955001 21 23 20
-1.247480 -1.579960 5.842773 67 61 58
-1.458639 -1.564101 6.920773 18 17 18
-1.506567 -1.542836 7.165720 12 14 11
-1.663322 -1.522042 7.965810 13 15 14
-1.669630 -1.523377 8.000020 15 17 16
-1.813267 -1.387507 8.745798 10 9 14
-1.902354 -1.271399 9.230968 12 10 15
-1.637253 -4.822769 7.671782 99 83 49
-0.704159 -1.877569 3.286547 193 140 106
-0.635611 -1.630075 2.939033 220 166 132
-0.589261 -1.447818 2.704170 187 142 111
-0.597695 -1.385119 2.714354 157 102 71
-0.570940 -1.235288 2.574389 218 159 124
-0.617454 -1.246895 2.778152 189 138 96
-1.110508 -2.008554 5.007878 195 151 104
-1.034266 -1.818101 4.674322 36 29 19
-1.001772 -1.610765 4.568613 22 22 19
-1.039224 -1.608764 4.764516 16 16 14
-1.030114 -1.586207 4.738567 19 19 19
-1.090080 -1.552983 5.052427 19 21 18
-1.124439 -1.543704 5.235094 21 21 19
-1.622386 -1.526789 7.757696 12 13 10
-1.702045 -1.495160 8.186129 13 13 13
-1.749282 -1.465701 8.418654 17 17 19
-1.478096 -4.328672 6.951235 66 49 17
-1.451505 -4.219920 6.817019 36 29 11
-0.644576 -1.663078 2.986909 212 156 123
-0.599411 -1.410321 2.730006 97 53 26
-0.594716 -1.382388 2.704398 170 115 87
-0.571820 -1.241026 2.580325 218 159 125
-0.605863 -1.237403 2.727670 173 122 79
-1.100965 -1.967900 4.974604 208 164 115
-1.039870 -1.837326 4.701982 136 104 75
-1.043722 -1.820588 4.727420 32 29 22
-1.036777 -1.609445 4.757469 19 19 17
-1.035027 -1.585961 4.762863 21 21 19
-1.077414 -1.560395 4.989987 21 21 19
-1.122982 -1.546873 5.227401 18 18 16
-1.157965 -1.549335 5.402821 103 94 86
-1.175482 -1.557807 5.496469 89 63 55
-1.195393 -1.566122 5.592123 32 30 33
-1.208540 -1.569728 5.661084 20 20 18
-1.603156 -1.588832 7.685713 18 18 20
-1.680911 -1.524533 8.085518 14 14 14
-1.750964 -1.409969 8.467611 10 9 14
-1.827524 -1.448752 8.812441 17 17 19
-1.885038 -1.350175 9.149567 10 10 15
-1.443705 -4.180079 6.783032 19 16 8
-0.998607 -2.748639 4.687354 24 16 9
-0.705447 -1.891711 3.302099 172 119 85
-0.633256 -1.592703 2.925848 225 174 143
-0.580102 -1.439443 2.672956 204 154 126
-0.605512 -1.438815 2.763976 171 126 97
-0.597105 -1.403345 2.721698 124 78 54
-0.574408 -1.253219 2.596298 214 155 124
-0.570450 -1.236136 2.577222 219 161 124
-0.602901 -1.242529 2.717538 142 90 51
-1.113212 -2.008046 5.029641 197 153 104
-1.107019 -1.987760 5.002734 205 161 112
-1.007321 -1.686781 4.586490 25 24 20
-1.010688 -1.617873 4.625258 19 20 14
-1.030160 -1.606696 4.728436 22 23 18
-1.041088 -1.582932 4.799875 24 25 20
-1.065275 -1.559208 4.936021 23 23 21
-1.102220 -1.557011 5.128372 21 21 19
-1.166145 -1.555831 5.459446 155 135 123
-1.204320 -1.571477 5.640444 21 21 21
-1.313148 -1.603976 6.184945 86 74 68
-1.481838 -1.551122 7.072249 87 70 65
-1.691680 -1.481231 8.156991 12 12 14
-1.703563 -1.475379 8.216826 17 17 18
-1.876794 -1.359429 9.113049 10 9 13
-1.454587 -4.223454 6.843035 30 26 15
-0.656289 -1.710017 3.055182 213 158 128
-0.628554 -1.611078 2.916056 219 165 131
-0.583528 -1.440928 2.688419 191 146 113
-0.575357 -1.326470 2.618223 188 131 101
-0.998137 -1.690790 4.545494 24 25 20
-0.922724 -1.520585 4.224534 21 22 16
-0.924408 -1.519513 4.229252 22 23 17
-0.974574 -1.584372 4.455098 21 20 15
-1.003574 -1.613250 4.595790 22 23 18
-1.019602 -1.620883 4.678339 21 21 18
-1.018412 -1.610174 4.673728 23 24 22
-1.021853 -1.607017 4.691876 18 19 14
-1.025611 -1.584165 4.735567 18 18 18
-1.037136 -1.595605 4.783996 19 19 17
-1.040489 -1.588119 4.798883 21 22 19
-1.055668 -1.565247 4.888807 24 25 20
-1.057475 -1.560317 4.900942 19 19 17
-1.070703 -1.558310 4.969773 21 21 20
-1.124403 -1.559504 5.247869 22 22 22
-1.136271 -1.554969 5.308699 26 22 20
-1.466391 -1.553110 7.007388 85 77 72
-1.593239 -1.597829 7.652541 15 15 15
-1.596118 -1.583542 7.665208 16 16 18
-1.706670 -1.472965 8.240553 14 13 14
-1.714695 -1.471698 8.276653 18 16 19
-1.725042 -1.469004 8.331099 18 15 18
-1.756460 -1.462091 8.490305 16 17 19
-1.884580 -1.290332 9.190990 8 7 12
-0.594762 -1.405721 2.721386 115 74 49
-0.594400 -1.389910 2.713053 170 116 92
-0.598600 -1.242613 2.705147 170 121 80
-0.611215 -1.245016 2.762031 186 138 92
-1.062047 -1.900850 4.814571 206 165 114
-0.997006 -1.692285 4.540962 23 24 18
-0.997175 -1.687454 4.548313 21 22 16
-0.999863 -1.663437 4.572082 22 23 18
-1.012390 -1.620071 4.642535 19 21 14
-1.051887 -1.557869 4.877206 22 22 20
-1.087653 -1.549830 5.070818 19 19 17
-1.263727 -1.591205 5.962377 72 64 64
-1.295783 -1.603317 6.118509 141 128 119
-1.322781 -1.576869 6.265529 18 20 19
-1.433232 -1.562249 6.841123 22 19 18
-1.439389 -1.563286 6.878906 155 146 139
-1.495926 -1.556197 7.160289 170 160 144
-1.574686 -1.600938 7.571450 14 14 12
-1.727753 -1.466396 8.366693 11 11 13
-1.855097 -1.449920 8.999680 12 12 13
-1.454159 -4.268843 6.870063 71 58 24
-0.989575 -2.732711 4.664106 25 16 9
-0.661116 -1.734042 3.086948 214 157 128
-0.630086 -1.620430 2.927649 220 168 131
-0.582068 -1.449758 2.690683 211 161 134
-0.598906 -1.422419 2.741709 108 69 43
-0.583363 -1.285405 2.647192 210 149 120
-1.038948 -1.816384 4.731622 28 25 18
-1.002546 -1.677584 4.585474 24 23 18
-1.018696 -1.620698 4.682064 18 19 15
-1.046771 -1.584083 4.846356 17 17 17
-1.065500 -1.561885 4.956545 22 24 21
-1.074561 -1.540709 5.010231 18 18 16
-1.097140 -1.552483 5.123260 20 20 18
-1.106944 -1.539592 5.172252 23 23 23
-1.119545 -1.544369 5.240138 21 20 15
-1.122324 -1.546558 5.254659 23 22 18
-1.195931 -1.570443 5.627769 21 21 21
-1.299104 -1.603610 6.139366 150 142 128
-1.313577 -1.573352 6.228343 17 17 15
-1.471532 -1.553962 7.047067 135 123 111
-1.497680 -1.558108 7.181453 157 145 132
-1.729707 -1.465949 8.377451 14 13 16
-1.766445 -1.457413 8.553935 14 12 17
-1.785914 -1.413045 8.664115 10 8 11
-1.921921 -1.432446 9.350007 12 12 14
-0.694910 -1.861587 3.264201 194 142 105
-0.687696 -1.834349 3.227056 199 146 109
-0.633188 -1.635808 2.948832 219 165 129
-0.580648 -1.436189 2.683323 187 145 111
-0.593235 -1.399235 2.715586 141 95 72
-0.597325 -1.227206 2.704360 169 121 75
-1.104765 -2.012001 5.012300 196 152 105
-1.097124 -1.978560 4.984061 205 162 111
-1.051479 -1.881291 4.780154 210 168 118
-0.990903 -1.691780 4.526439 27 27 20
-1.002647 -1.673820 4.592202 22 22 18
-0.992447 -1.602883 4.560835 22 23 18
-1.064523 -1.553188 4.959802 23 23 21
-1.066935 -1.540828 4.976325 22 22 22
-1.104339 -1.559465 5.166855 19 19 17
-1.113428 -1.566598 5.211431 21 21 20
-1.143292 -1.541891 5.372708 144 126 112
-1.181257 -1.562442 5.560336 118 110 100
-1.195153 -1.546411 5.637396 98 94 85
-1.732073 -1.443854 8.404787 8 9 11
-1.738653 -1.413630 8.455880 14 14 16
-1.850053 -1.414891 9.011321 9 9 11
-1.224106 -3.510044 5.770418 19 11 8
-0.683772 -1.819934 3.207947 204 150 116
-0.624261 -1.607559 2.908751 217 165 126
-0.614313 -1.537566 2.846154 215 167 139
-0.584983 -1.242222 2.654333 207 153 115
-0.591711 -1.235190 2.682155 177 130 86
-0.593809 -1.226969 2.692508 161 113 67
-0.613871 -1.248437 2.781934 179 131 86
-1.051453 -1.884702 4.780760 208 167 115
-1.035895 -1.842043 4.715311 75 60 45
-1.029912 -1.821239 4.688924 33 29 20
-0.987824 -1.675357 4.523268 24 23 18
-1.000807 -1.669897 4.585632 22 23 18
-1.015114 -1.601939 4.688290 25 26 21
-1.047620 -1.584514 4.865362 17 17 17
-1.047376 -1.555299 4.871791 20 20 18
-1.050159 -1.556915 4.888116 21 21 19
-1.061474 -1.555112 4.950565 24 24 23
-1.062886 -1.550321 4.958588 24 24 22
-1.070346 -1.554919 4.996943 23 23 23
-1.121095 -1.548505 5.254203 19 18 14
-1.229952 -1.575146 5.818730 16 16 14
-1.265317 -1.591714 5.990020 72 65 65
-1.363209 -1.603436 6.476509 20 22 21
-1.563578 -1.533284 7.536945 13 13 13
-1.632091 -1.521821 7.886538 15 16 18
-1.687686 -1.535036 8.181238 17 15 16
-1.686402 -1.473522 8.182330 15 15 17
-0.692964 -1.859537 3.262992 196 142 103
-0.618752 -1.590205 2.883999 220 166 131
-0.578385 -1.222266 2.626106 201 149 109
-0.577167 -1.213691 2.620187 188 137 97
-1.103474 -2.016742 5.019232 193 149 102
-0.982384 -1.682795 4.495592 31 31 23
-0.996630 -1.677366 4.574148 24 23 18
-0.997941 -1.643775 4.590761 22 23 18
-1.026613 -1.603188 4.749008 23 23 21
-1.051879 -1.555852 4.904114 22 24 21
-1.140778 -1.555047 5.364713 162 149 135
-1.171199 -1.558915 5.524407 112 92 82
-1.218557 -1.566800 5.765136 14 14 12
-1.349257 -1.631494 6.411829 20 22 16
-1.596825 -1.596896 7.719421 14 14 14
-1.590391 -1.570884 7.683894 14 15 17
-1.729759 -1.461236 8.409611 12 14 13
-1.835695 -1.397593 8.975110 7 7 9
-0.639135 -1.668592 2.990030 213 157 124
-0.624199 -1.613482 2.915462 220 168 129
-0.625910 -1.586438 2.915241 219 168 134
-0.581392 -1.458569 2.702304 217 167 142
-0.575673 -1.416831 2.663586 82 51 25
-0.591904 -1.409623 2.722923 104 68 48
-0.595429 -1.225230 2.704855 171 122 79
-1.092645 -1.976228 4.977352 208 165 115
-1.026540 -1.821851 4.685081 30 26 17
-0.989906 -1.676891 4.542846 26 25 20
-0.985258 -1.598466 4.546363 20 21 16
-1.001257 -1.608207 4.623724 19 18 13
-1.009358 -1.609922 4.662484 19 20 15
-1.012038 -1.604660 4.680811 21 22 17
-1.013516 -1.597085 4.690434 24 25 20
-1.048551 -1.586260 4.880576 19 19 17
-1.051189 -1.585369 4.898629 20 22 20
-1.036827 -1.555597 4.834103 21 22 17
-1.045673 -1.560074 4.874856 20 20 18
-1.076136 -1.567300 5.032649 23 23 22
-1.078419 -1.564218 5.049527 21 21 23
-1.119283 -1.552105 5.263990 26 24 19
-1.227407 -1.574969 5.819242 10 10 8
-1.254273 -1.586630 5.949391 85 78 74
-1.433609 -1.563838 6.884818 140 130 125
-1.494712 -1.553413 7.197262 133 120 110
-1.588624 -1.521490 7.682723 9 14 11
-1.614387 -1.531320 7.820498 16 18 17
-1.619645 -1.449566 7.869472 17 17 19
-1.673443 -1.464193 8.142449 12 12 12
-1.687293 -1.463997 8.207867 14 12 13
-1.893623 -1.470768 9.265041 11 9 12
-1.446369 -4.272957 6.872625 82 66 30
-1.408754 -4.123499 6.686915 21 14 6
-1.356150 -3.917769 6.414653 24 16 13
-0.645370 -1.697787 3.028308 217 157 129
-0.642025 -1.684960 3.011747 210 153 123
-0.592261 -1.416634 2.730072 73 38 18
-0.587895 -1.226960 2.674860 174 122 82
-0.592455 -1.222417 2.694637 167 118 75
-0.607677 -1.247965 2.764113 178 130 84
-0.609810 -1.249384 2.775645 169 123 75
-1.106705 -2.049809 5.044261 189 144 102
-1.113391 -2.047863 5.072877 193 149 103
-1.104905 -2.022438 5.035066 196 152 106
-1.085016 -1.958639 4.950811 207 164 113
-1.039011 -1.863748 4.742307 207 164 115
-1.000602 -1.640651 4.611510 23 22 16
-1.010987 -1.605550 4.678490 20 21 16
-1.022073 -1.597108 4.744169 18 18 16
-1.020468 -1.574072 4.747392 21 20 18
