ply
format ascii 1.0
element vertex 1211
property float x
property float y
property float z
property uchar red
property uchar green
property uchar blue
end_header
4.237202 -6.696002 29.013422 71 59 37
4.497071 -3.488912 30.676699 170 164 140
4.703120 -2.284401 32.213104 124 127 98
5.028544 -1.004455 34.406349 135 121 92
5.205302 -0.202717 35.591290 98 86 70
5.366230 1.468197 36.620174 160 154 132
4.753401 4.764104 32.504456 171 160 132
4.714227 5.536567 32.358978 195 184 162
4.631135 6.138928 31.739544 176 170 148
4.355275 6.488963 29.730101 167 150 120
4.042715 6.813137 27.610519 99 83 57
3.809711 6.630345 26.010229 186 170 144
4.521427 -5.763123 30.649889 116 105 85
4.737646 -2.470346 32.099133 141 146 116
4.749145 -2.137960 32.309151 115 114 86
5.166341 -0.614912 35.165760 105 94 66
4.800898 4.675997 32.717400 143 132 104
4.786543 5.460636 32.472317 181 170 142
4.641757 6.326432 31.564550 105 98 72
4.124540 6.827536 28.031578 172 156 130
4.092362 6.826367 27.850426 150 134 108
4.504230 -5.879669 30.492884 114 103 85
4.641005 -5.009748 31.347767 90 80 55
4.670742 -4.126436 31.345518 133 126 100
4.574471 -2.917546 30.868462 104 96 75
5.198798 -0.808510 35.106995 131 116 87
5.250408 -0.404638 35.406563 122 110 88
5.426425 1.469233 36.714088 181 175 153
4.974628 3.938627 33.659935 177 176 155
4.863363 4.092953 32.843658 169 167 146
4.869487 4.241903 32.959240 169 163 139
4.838542 4.837930 32.702591 173 162 134
4.604165 -3.388971 30.829868 170 164 140
5.293361 -0.298134 35.564888 112 99 82
5.355929 0.125866 35.977524 54 46 35
5.589478 1.292778 37.488903 158 150 127
5.638835 1.955202 37.754654 162 157 135
4.820992 5.952536 32.337753 178 173 153
4.175589 6.798875 28.116999 137 120 92
4.355443 -6.427538 29.082811 82 69 50
4.587737 -6.135304 30.560320 120 109 87
5.323591 -0.499413 35.464779 117 105 81
5.754768 2.219945 38.272663 178 177 157
4.722878 6.442842 31.516363 123 119 94
3.941010 6.671626 26.191698 161 145 119
4.750452 -4.571494 31.440762 107 97 72
4.734023 -4.296183 31.351351 95 85 60
4.680979 -3.321417 31.090176 127 119 98
4.674765 -3.200503 31.106596 99 91 70
4.856265 -2.419878 32.069714 161 159 134
4.896890 -2.087673 32.367298 190 182 159
5.622547 0.645208 37.197235 154 147 129
5.765207 1.308757 38.172691 156 146 121
5.402490 3.404831 35.651367 170 173 154
5.317585 3.653985 35.094536 191 193 172
5.007843 4.474658 33.108253 175 170 148
4.954682 5.370471 32.693249 172 163 134
4.856184 6.073596 32.128208 137 134 115
4.159695 6.823450 27.586563 171 155 129
4.723565 -5.705172 30.989626 94 83 65
4.787277 -4.802037 31.529995 111 97 71
4.780591 -4.057329 31.392267 106 101 72
4.869765 -2.571456 32.038475 90 84 62
4.889083 -2.294908 32.097668 113 107 83
4.936710 -1.950616 32.549515 156 150 118
5.184728 -1.003286 33.981354 108 91 63
5.653683 2.790931 37.165676 172 175 156
5.183857 4.104330 34.204426 179 177 154
5.074409 4.606245 33.300423 185 180 158
4.997581 4.898105 32.858967 167 156 128
4.977391 5.003035 32.815117 178 167 139
4.586645 6.541297 30.244669 189 178 150
4.480534 -6.262795 29.299122 60 47 28
4.751349 -5.445879 31.091768 92 82 57
4.807711 -4.984270 31.409685 74 60 34
5.864220 1.439629 38.165195 180 172 149
5.914331 2.491820 38.588558 155 154 134
5.444909 3.489717 35.664482 190 192 171
4.806912 6.524766 31.344824 140 136 111
4.189566 6.877401 27.338848 109 93 67
4.421566 -6.790917 28.795944 96 84 62
4.763330 -5.897794 30.893330 89 77 55
4.802572 -5.314566 31.197920 115 107 84
4.796073 -3.484662 31.169365 91 85 61
5.933277 1.722796 38.358807 160 152 129
5.967778 2.091474 38.622505 177 172 152
5.963929 2.205067 38.663494 184 179 159
5.490947 3.998909 35.626411 171 169 148
5.161597 4.266236 33.459419 163 161 138
5.128906 4.635858 33.290096 167 163 138
5.020612 5.822830 32.759552 184 173 151
5.082308 6.045679 32.953236 186 181 162
4.501073 6.548870 29.138950 204 190 163
4.878398 -4.666215 31.465870 135 125 98
4.859172 -3.779376 31.293221 147 141 117
4.855917 -2.985788 31.423058 88 81 62
4.897541 -2.877424 31.650579 99 93 71
5.284610 -1.000957 34.082512 106 89 61
5.480844 -0.629554 35.430748 109 95 66
5.604139 0.130470 36.198032 53 44 35
5.921045 1.206685 38.070892 158 150 129
5.895266 3.308910 38.016144 158 159 141
5.192907 4.826818 33.371544 173 163 136
4.821223 6.569881 31.107338 106 96 71
4.010756 6.733777 25.859468 138 118 93
4.503464 -6.610273 28.878578 86 74 52
4.886070 -5.091465 31.314297 54 42 16
5.253408 -1.616568 33.527554 152 141 113
5.210448 4.662778 33.363815 174 167 141
4.904620 -5.225027 31.235626 60 49 27
5.184103 -1.816429 33.050255 131 122 91
5.615428 -0.333638 35.773911 141 130 110
5.947421 0.631789 37.831097 74 67 49
6.022748 1.056225 38.252529 84 76 55
6.061542 2.684408 38.570049 173 175 154
5.912470 3.709941 37.583294 149 148 128
5.208572 6.123956 33.250732 157 154 135
5.120943 6.145669 32.534187 184 181 162
4.999965 6.423658 31.869680 195 187 164
4.722315 6.571029 30.015301 181 167 140
4.554281 6.595265 28.819159 153 132 101
4.430421 6.730678 28.172745 161 138 107
4.383681 6.822332 27.961552 191 171 146
3.995755 6.784725 25.450302 153 133 108
4.565075 -6.785337 28.946115 98 86 64
4.903720 -5.372246 31.096094 84 73 51
5.088223 -2.022121 32.248779 173 163 136
6.071268 2.799184 38.295197 191 193 172
5.259272 6.032634 33.322720 158 152 130
4.660981 -6.506434 29.332584 97 82 59
4.688481 -6.352419 29.532743 100 85 62
4.876125 -6.030387 30.776594 81 70 48
4.906875 -5.694510 30.943428 130 117 98
4.969018 -3.780361 31.294832 162 154 131
4.973356 -3.461650 31.231016 142 134 111
4.999148 -3.137705 31.419922 89 82 63
5.086171 -2.756063 32.022964 90 82 59
5.178792 6.326130 32.458637 160 157 138
4.941792 -5.575245 30.990974 131 118 99
5.031893 -4.763507 31.475288 121 109 83
5.006160 -4.547174 31.375387 132 122 95
4.994284 -3.951412 31.309416 146 136 111
5.035089 -3.334033 31.359125 122 114 93
5.395760 -1.571481 33.685783 155 144 116
5.419952 -1.492778 33.833958 129 118 90
5.497306 -1.165661 34.267998 103 89 60
5.695421 -0.378437 35.703037 121 110 92
6.143893 1.189383 38.288223 58 52 30
6.223202 2.096241 38.772228 134 128 106
5.822222 4.134967 36.383389 139 137 116
5.607428 4.612792 34.987183 157 155 132
5.320511 6.210470 33.236519 162 160 139
5.031466 6.648862 31.410912 188 178 153
4.673607 6.603974 29.179539 182 167 138
4.577464 6.638573 28.670704 176 155 126
4.394327 6.833092 27.542097 173 153 128
4.175003 6.667965 26.060036 107 87 62
4.090526 6.728437 25.566790 165 145 120
4.736364 -6.632422 29.470436 98 86 64
5.068491 -4.338565 31.382408 139 129 102
5.157649 -2.268754 32.133030 130 118 96
5.405088 -1.649028 33.539200 177 170 142
6.126384 0.598507 37.973766 82 75 57
6.256552 2.190647 38.719967 167 161 139
6.248032 2.635260 38.728516 185 184 163
6.135597 3.326091 38.214664 155 158 137
6.227867 4.033126 38.573990 187 186 166
5.537667 5.466090 34.510532 168 162 136
4.855950 6.648196 30.078644 166 152 125
4.957740 -6.118843 30.657692 75 63 39
5.068183 -5.127592 31.285559 62 50 24
5.289840 -1.955899 32.681740 148 142 116
6.158350 0.377800 37.977478 62 55 37
6.179472 0.789682 38.098671 94 87 69
6.186126 1.181121 38.244389 71 66 44
6.297776 2.398732 38.860973 165 157 134
6.187627 3.013318 38.220078 194 192 169
6.227948 3.757137 38.472355 179 178 158
5.636767 5.024445 34.861992 156 150 126
5.616990 5.725905 34.622398 150 146 121
5.596461 6.101967 34.504192 203 197 175
4.874786 6.629530 30.143673 133 119 92
5.084898 -3.884545 31.249670 127 115 89
5.154725 -3.188464 31.532644 98 87 65
5.229940 -2.587135 32.120186 88 76 52
5.243183 -2.101068 32.252338 132 120 98
5.473598 -1.662640 33.522888 178 171 145
5.749918 -0.845165 35.227768 117 103 74
6.017722 0.145150 36.817539 83 75 62
5.964971 4.457613 36.556854 164 162 141
5.640921 5.853175 34.590042 165 158 132
5.216928 6.601019 31.975399 172 164 141
5.014025 -6.255258 30.528765 95 80 57
5.068957 -5.487280 30.935946 49 34 13
5.139614 -4.808458 31.473227 119 107 81
5.610805 -1.308909 34.110920 190 181 152
5.829948 -0.715438 35.512718 123 112 84
5.880455 -0.425554 35.915039 108 95 78
6.270189 0.976533 38.159531 69 64 42
6.277992 3.464225 38.337395 179 177 156
5.876119 5.437290 35.819679 172 166 142
5.600710 6.189189 34.194736 200 197 178
4.900310 -6.711372 29.663671 101 89 67
5.047144 -6.031135 30.622545 103 88 65
5.148238 -3.607590 31.236734 127 115 93
5.220783 -3.142906 31.599613 94 79 58
5.306120 -2.475589 32.139507 90 75 54
6.328427 3.292085 38.356476 181 176 156
5.882073 5.541708 35.642441 173 168 146
5.836891 5.641111 35.331299 150 145 123
5.250164 -4.566024 31.580246 128 118 91
5.211998 -4.089683 31.401194 150 136 109
5.185181 -3.786271 31.281155 111 99 75
5.233373 -3.466247 31.354187 158 146 124
5.225193 -3.334253 31.473999 90 75 52
5.316967 -2.740498 32.049103 98 80 56
5.841941 -0.906071 35.137211 106 95 65
5.933378 -0.636544 35.737129 114 99 76
6.412735 2.162634 38.636196 165 155 130
4.358533 6.660344 26.215185 134 114 89
4.300964 6.713639 25.810905 137 117 92
4.207077 6.744244 25.261042 159 139 114
5.012559 -6.479319 30.045818 99 85 58
5.123061 -5.939258 30.654224 77 65 41
5.267317 -4.241055 31.485424 101 87 60
5.369540 -2.464612 32.149326 93 78 57
5.548655 -1.765393 33.151939 109 104 82
5.606940 -1.532925 33.599419 108 99 70
6.372990 1.261750 38.171715 142 140 117
6.416264 1.575439 38.378361 167 159 136
6.460172 2.042300 38.643436 175 165 140
6.480457 2.354347 38.686810 156 146 121
6.398119 3.118498 38.282646 152 146 122
6.498150 4.241911 38.897804 186 185 165
6.161870 5.492910 36.893448 176 171 149
5.774704 6.171000 34.604019 198 195 176
5.581591 6.456702 33.355495 171 169 144
5.134176 6.641385 30.770748 206 192 165
4.783017 6.707657 28.738159 150 133 105
4.527466 6.795368 27.177134 111 91 66
5.002875 -6.570059 29.731726 98 84 57
5.260745 -4.967269 31.371309 107 95 69
5.239207 -3.563821 31.304745 147 135 113
5.324541 -3.297953 31.658821 100 84 61
5.434706 -2.975409 32.170761 77 61 36
6.442470 0.319548 38.377384 108 101 85
6.404271 0.846787 38.174717 85 78 60
6.460616 1.686905 38.448479 165 157 134
6.461057 1.933466 38.504929 200 192 169
5.882705 5.974251 34.962315 165 159 137
4.286304 6.725781 25.460457 139 119 94
4.990241 -6.564734 29.575470 102 88 62
5.279262 -5.145305 31.303076 57 45 21
5.378113 -3.093313 31.908760 76 60 37
5.486243 -2.831266 32.399605 105 89 64
5.561203 -2.095421 32.880814 86 74 52
6.186733 -0.349669 36.671574 72 60 46
6.490913 0.560549 38.364128 89 82 64
6.565385 4.546592 38.868248 168 166 145
6.599844 4.898515 38.996231 174 172 151
6.270113 5.733094 36.998184 162 159 140
5.974833 5.829659 35.329109 204 201 182
4.445427 6.692917 26.288120 96 79 53
5.235080 -5.674185 30.778904 100 88 62
5.272412 -5.410820 31.037872 110 96 70
5.331271 -3.851574 31.304609 141 127 100
5.465273 -2.985834 32.234684 66 52 26
6.550762 1.284289 38.449749 136 136 112
6.553928 2.184782 38.557529 124 116 93
6.508158 2.751692 38.281586 197 193 168
6.533953 3.465540 38.349396 179 167 151
6.599250 3.990709 38.737152 157 156 136
6.657417 5.014132 39.061527 189 186 167
5.613338 6.492881 33.097328 143 138 118
4.936112 6.649839 29.037943 147 130 104
4.868511 6.707945 28.639395 126 109 83
4.320435 6.775295 25.449774 158 141 115
5.315144 -5.509450 31.045788 109 95 68
5.370061 -5.292490 31.347002 97 83 56
5.383918 -4.376476 31.514509 144 134 107
5.778853 -1.689315 33.706425 161 153 132
5.907945 -1.113199 34.605915 110 99 71
6.612482 0.292241 38.607666 94 87 71
6.586879 2.500540 38.547112 173 169 144
6.535755 2.905655 38.204620 188 186 161
6.670386 4.878101 38.995945 182 179 160
6.628153 5.334070 38.820766 177 174 155
6.008800 6.029591 35.076694 173 171 150
5.432250 6.645002 31.751396 141 131 104
4.795644 6.752072 28.091591 165 148 122
5.271592 -5.793474 30.739538 95 83 57
5.452758 -4.695812 31.674168 107 97 70
5.441616 -4.530273 31.543970 112 102 75
5.405399 -4.116590 31.399738 124 110 83
5.840661 -1.326515 34.054012 116 107 78
6.602810 1.820483 38.457470 90 84 62
6.652837 2.377640 38.642738 159 154 134
6.722159 5.428226 39.068714 156 151 132
6.510157 5.871092 37.889683 177 171 155
5.789060 6.462923 33.727650 180 175 155
5.312342 -6.105315 30.689138 81 67 41
5.407721 -3.793751 31.295248 120 109 77
5.754942 -2.368698 33.295490 85 70 47
6.273874 -0.633176 36.299999 105 96 67
6.508739 -0.118314 37.596058 57 50 34
6.742736 4.885602 38.972225 159 156 137
6.262234 6.034159 36.107872 187 181 165
6.009573 6.331563 34.725658 197 195 174
5.868750 6.480152 34.004990 178 173 153
5.629308 6.605064 32.568047 156 146 119
5.395498 6.638657 31.030754 148 132 106
5.456882 -4.225676 31.348217 135 121 94
5.895794 -1.862887 33.951630 105 97 76
6.429067 -0.509411 36.933174 129 118 100
6.745496 1.205534 38.748211 178 180 156
6.625503 3.108036 38.120060 136 138 117
6.691480 5.755642 38.446568 168 163 144
6.559477 6.022647 37.779278 159 152 136
5.595112 6.656163 32.152966 172 162 137
4.542304 6.813125 26.089794 178 162 136
4.497035 6.871865 25.879297 81 65 39
5.500579 -4.569204 31.451597 132 122 95
5.504776 -3.434692 31.384214 148 137 105
5.560506 -3.181931 31.773252 103 89 63
5.693484 -2.811874 32.540226 115 101 75
6.081696 -2.161943 34.699581 93 85 64
6.379488 -0.861182 36.497688 160 149 121
6.751731 0.272200 38.521690 105 98 82
6.758488 0.540397 38.714344 106 99 81
6.798535 1.041219 38.871086 189 191 167
6.719182 1.616024 38.478939 151 140 120
6.655311 3.151685 38.139748 89 86 67
6.674939 3.381228 38.172855 159 156 137
6.708052 3.631958 38.367336 82 79 60
6.767378 3.819416 38.526855 138 137 117
6.705945 5.932215 38.308174 156 149 133
6.142133 6.146887 35.073280 142 137 117
5.448913 6.648122 31.132494 143 127 101
5.200684 6.589843 29.735485 142 126 100
4.627487 6.690666 26.506544 117 101 75
5.484715 -5.581659 31.160040 111 99 73
5.798867 -2.685927 32.982204 82 68 42
5.861260 -2.581909 33.219810 96 82 56
6.777204 0.055343 38.373985 75 68 50
6.712897 3.536989 38.295464 91 88 69
6.040497 6.428739 34.377174 126 120 98
5.960332 6.470196 33.818111 149 143 121
4.603105 6.747603 26.196211 106 90 64
5.368641 -6.373419 30.406342 96 82 56
5.432032 -6.032817 30.774448 87 73 47
5.584915 -5.068690 31.510481 55 40 19
5.604320 -4.686568 31.567730 102 92 65
5.555106 -4.443312 31.385965 119 109 82
5.539288 -3.598999 31.328989 110 101 70
5.557808 -3.484854 31.412514 161 152 121
6.072013 -1.371056 34.419956 165 155 128
6.704535 -0.280188 37.855057 76 65 47
6.800803 1.962278 38.469917 182 177 155
6.839707 5.541096 38.667427 192 187 168
6.208173 6.311612 35.079247 161 156 136
4.617237 6.874709 26.107477 160 144 118
4.577852 6.919891 25.834284 81 65 39
5.161718 -6.489130 28.971346 97 83 57
5.567260 -5.422531 31.381247 103 92 64
6.865809 0.331827 38.575657 101 94 76
6.900371 0.748353 38.855015 130 124 102
6.860895 1.519631 38.627682 152 141 121
6.757529 2.956884 38.013748 170 177 161
6.814562 3.634659 38.335644 160 162 141
6.874726 4.012579 38.592697 162 161 141
6.914418 4.143620 38.654510 132 131 111
6.919053 4.241712 38.786530 139 138 118
6.916451 4.390312 38.826469 144 142 121
6.947648 4.479791 38.939472 93 91 70
6.928574 5.510045 38.844307 162 159 140
6.810931 5.837413 38.330669 172 169 150
6.668065 6.100340 37.558071 158 149 132
6.231349 6.188493 35.105274 141 134 115
5.774030 6.641975 32.466087 154 143 121
5.161821 6.707418 29.019264 119 102 76
5.049413 6.748250 28.409271 158 141 115
4.935221 6.663587 27.688204 150 133 107
5.631394 -5.358330 31.416311 124 113 85
5.639444 -4.926175 31.504318 113 101 79
5.631411 -4.798582 31.465668 127 116 94
5.877569 -2.727988 32.862362 94 80 54
6.100148 -1.756720 34.168396 146 138 117
6.860394 0.086603 38.465729 103 96 78
6.949004 1.014110 38.907543 141 139 116
4.802636 6.612885 26.686811 147 127 102
5.610214 -5.972162 31.114948 99 87 65
5.628178 -5.606448 31.329210 120 110 83
5.643058 -5.171180 31.416922 126 111 88
5.864156 -2.954432 32.530228 105 91 65
5.968522 -2.585729 33.221073 93 79 52
6.266206 -2.188779 34.867992 120 109 87
6.145577 -1.509522 34.235943 108 98 73
6.405436 -1.092252 35.606049 132 125 99
6.987753 0.925117 38.891205 169 164 142
6.872953 3.629727 38.302761 144 146 125
6.972736 4.123409 38.685848 166 165 145
7.012318 5.323812 39.014812 160 157 138
6.713385 6.112588 37.449818 130 121 104
5.316399 6.624766 29.632412 148 132 106
4.725172 6.793787 26.177065 113 97 71
5.674440 -5.234211 31.382597 120 111 82
5.674174 -4.482655 31.393003 136 126 99
5.658832 -3.632449 31.307301 136 129 100
6.511058 -1.002036 36.086151 101 94 68
7.015831 1.773559 38.664162 137 131 109
7.080758 5.099048 39.169662 158 155 136
6.751200 6.152894 37.255028 167 156 138
6.444811 6.334085 35.516479 132 125 106
6.388629 6.383478 35.194435 140 132 113
6.231978 6.508657 34.429615 176 165 143
5.678626 -5.915610 31.177889 93 80 61
5.694934 -4.390277 31.385172 154 144 117
5.689825 -3.785993 31.249001 151 144 115
5.777384 -3.236633 31.759256 84 70 44
6.061774 -2.636577 33.279537 104 90 64
6.707917 -0.782485 36.873981 126 120 96
7.077036 0.638680 38.795933 154 148 124
7.014526 3.999890 38.502666 202 201 181
6.531121 6.219278 35.800484 182 174 155
6.066633 6.534796 33.372189 138 128 103
5.731884 -5.743415 31.316378 123 110 91
5.715195 -5.511379 31.299606 119 110 81
6.056972 -2.818646 33.035652 109 95 69
6.390677 -2.441248 34.933796 109 95 66
7.005961 2.818763 38.339699 167 171 154
7.087533 4.416174 38.733330 155 153 132
7.145548 4.903679 39.077919 183 180 161
5.759240 -5.443681 31.329630 115 108 79
5.750703 -5.210444 31.338112 91 84 55
5.760349 -4.320892 31.424658 134 124 97
6.647911 -2.381973 36.057873 78 64 35
6.678014 -2.021504 36.205448 140 132 111
6.729744 -1.246127 36.584927 112 104 81
7.102080 0.609912 38.694916 134 128 104
7.137270 0.677942 38.821632 148 142 118
7.237522 1.270442 39.290066 133 128 106
7.095047 1.648914 38.706360 178 167 147
7.097005 1.942377 38.677891 145 140 118
7.105046 2.649075 38.748135 169 173 156
7.123796 4.471611 38.798431 176 174 153
6.780413 6.311622 36.822346 170 162 143
6.278399 6.515986 34.179306 139 129 104
6.023489 6.673442 32.779854 176 165 145
5.309010 6.710233 28.914064 183 166 140
4.953692 6.606613 27.004618 199 177 153
4.806403 6.833371 26.037086 108 92 66
5.326608 -6.637694 28.725702 95 81 55
5.792671 -4.007653 31.303442 156 142 115
5.785084 -3.623129 31.365757 162 155 127
5.846159 -3.446831 31.634693 73 66 38
5.935123 -3.203525 32.074024 85 71 45
6.154860 -2.674564 33.253326 101 87 61
6.248106 -2.535333 33.777344 81 67 38
7.036119 -0.231405 38.016369 89 81 62
7.244362 1.053009 39.141682 138 132 110
7.179917 1.779236 38.814816 128 120 99
7.035391 2.995766 38.055634 169 172 153
7.245703 5.062231 39.151886 164 161 142
7.246108 5.214592 39.095364 176 173 154
7.229380 5.266529 39.065136 205 202 183
7.140769 5.556136 38.679817 165 164 144
5.479803 6.557867 29.623886 128 112 86
5.225399 6.735228 28.262823 114 97 71
5.358688 -6.441626 28.803825 86 70 45
5.831925 -5.516999 31.306242 123 112 90
5.782811 -3.873976 31.129061 153 139 112
5.938103 -3.228653 32.011566 73 61 35
6.878291 -1.503807 37.025997 141 133 110
7.071657 3.390905 38.068680 171 172 154
7.218185 4.569633 38.919308 152 147 127
7.048137 6.197866 37.898338 154 146 127
6.615654 6.521611 35.563286 120 109 87
4.929765 6.621576 26.528437 90 70 45
4.854031 6.892573 26.042459 165 149 123
5.816754 -6.068710 31.112852 67 53 26
5.837316 -4.989714 31.313023 120 108 86
5.904332 -3.451166 31.643854 85 71 45
6.012658 -3.078529 32.168175 87 75 49
6.144166 -2.909265 32.870113 112 100 74
6.396795 -2.493400 34.230331 82 68 42
7.005340 -1.880842 37.458603 78 67 45
6.955469 -0.774395 37.242001 160 153 127
7.159337 -0.040731 38.290783 97 91 69
7.160028 0.039987 38.350136 100 94 72
7.171713 0.101049 38.376320 101 95 73
7.191148 0.243555 38.380798 123 117 95
6.118969 6.694807 32.752769 139 126 107
6.079921 6.675014 32.457241 158 145 126
5.060456 6.583836 27.116385 158 138 113
5.851977 -5.777388 31.186726 125 113 91
5.881093 -5.506869 31.287462 112 99 80
6.807440 -2.390963 36.263660 78 64 38
6.900800 -2.217935 36.744499 67 56 34
7.104538 -0.244614 37.879639 81 70 50
7.300048 4.573887 38.926006 176 173 154
4.911512 6.710461 26.164850 161 139 115
5.429332 -6.396462 28.777092 88 74 48
5.874712 -5.936594 31.094883 59 44 23
5.921538 -4.881404 31.325237 144 133 111
5.915327 -4.787834 31.286604 146 135 113
5.911994 -4.430571 31.303677 133 121 95
5.918802 -4.334767 31.320517 137 125 99
5.932001 -4.172454 31.375526 137 123 96
5.888204 -3.885644 31.121704 116 102 75
5.890130 -3.716112 31.205803 166 152 126
6.590922 -2.457278 34.871346 110 96 70
7.087171 -1.547157 37.608501 110 102 79
7.055633 -0.534593 37.416267 130 119 99
7.094555 -0.483148 37.484798 105 94 74
7.418741 0.991296 39.212292 92 81 61
7.470460 2.194638 39.508850 149 146 127
7.458264 2.613479 39.555439 177 174 155
7.266685 3.844770 38.478107 160 163 144
7.309117 5.770854 38.629574 192 184 163
7.237681 5.864291 38.385033 204 196 175
6.358106 6.552598 33.662624 163 152 130
6.258028 6.678428 33.123985 166 153 134
5.958886 6.686030 31.594734 160 148 126
6.020324 -3.452639 31.701494 109 95 69
6.249591 -2.792829 32.915592 76 62 36
6.373177 -2.543855 33.524666 96 82 56
7.317653 0.469178 38.645859 121 114 95
7.510930 1.561355 39.555042 117 106 88
7.523290 1.960891 39.621944 149 138 120
6.202267 6.698040 32.677395 188 175 156
6.094820 6.676693 32.143764 172 159 140
5.775693 6.582005 30.459904 154 138 113
5.708527 6.546793 30.088289 136 120 95
5.568637 6.584318 29.245380 100 84 59
5.635358 -6.284337 29.505548 93 79 53
5.899785 -6.365873 30.899025 99 85 58
5.924866 -6.121956 30.951246 75 61 34
7.074230 -2.096162 37.077095 89 79 54
7.121628 -1.098524 37.304478 96 82 53
7.148664 -0.811107 37.444180 91 77 48
7.318999 -0.015301 38.362576 125 119 97
7.400699 0.305316 38.697617 155 149 127
7.355925 3.401385 38.439999 182 186 169
7.350908 3.617080 38.515781 175 178 159
7.429340 4.691144 38.845394 184 188 171
7.436741 4.999326 38.934177 113 112 92
7.449729 5.328346 38.938259 166 165 145
7.198305 6.357402 37.764431 175 169 147
6.347906 6.679883 33.227463 112 99 80
5.009432 6.883567 26.160175 123 106 80
5.994602 -5.768107 31.167858 44 32 10
5.978469 -5.594531 31.188089 52 41 19
5.984590 -4.410816 31.254002 139 127 101
5.940357 -3.848511 31.010218 143 129 102
6.280499 -2.910465 32.718502 94 82 56
7.137929 -1.178727 37.278950 81 66 35
7.596024 1.365189 39.563095 135 124 102
7.455509 3.198380 38.840900 171 175 158
7.482748 4.608851 38.964073 174 178 164
7.435047 5.583529 38.715923 158 147 129
7.206276 6.489866 37.578300 160 152 129
6.431742 6.656427 33.466930 130 117 98
5.753447 6.533535 30.035845 130 114 89
5.022865 6.969475 26.159834 142 126 100
5.522952 -6.381654 28.672621 108 94 68
6.534886 -2.502480 33.903934 107 93 67
7.179174 -2.063396 37.301685 79 69 44
7.520070 4.384131 38.939476 151 157 143
7.167243 6.521387 37.199360 178 170 147
7.132263 6.595659 36.845493 163 156 130
6.814723 6.661941 35.314289 111 100 78
5.504238 6.625976 28.494656 138 122 96
5.445879 6.635981 28.256180 163 147 121
5.406476 6.660471 28.059484 123 107 81
5.228096 6.606027 27.046280 86 66 41
5.124609 6.692488 26.585987 144 124 99
5.108700 6.701737 26.483831 105 85 60
5.996991 -6.115683 30.945532 73 59 32
6.105161 -3.629852 31.506895 163 149 123
6.431674 -2.694270 33.137512 107 91 66
7.188490 -2.139502 37.183670 101 91 66
7.281413 -0.799007 37.559685 117 102 71
7.358695 -0.160006 38.013767 143 137 115
7.481250 0.162109 38.593872 118 112 90
7.666426 0.736606 39.406563 121 114 95
7.720844 1.812129 39.892960 131 124 105
7.874973 2.486444 40.676830 99 97 74
7.537766 4.195438 38.951126 165 174 155
6.527112 6.621656 33.715988 158 147 125
5.747483 6.540670 29.584553 135 119 94
6.042523 -6.180398 30.947044 88 74 47
6.087408 -5.413121 31.228399 131 116 97
6.079524 -5.259232 31.238960 137 122 103
6.071131 -5.044240 31.232718 65 50 29
6.337592 -2.942869 32.653469 105 93 67
7.000239 -2.488397 35.837353 101 87 61
7.309580 -0.714759 37.570160 139 131 108
7.558203 0.368300 38.827198 141 134 115
7.713701 0.989138 39.572041 128 118 93
7.990142 2.627993 40.943012 157 155 132
7.709900 3.551117 39.613834 190 194 177
7.601418 3.626365 39.035912 159 163 146
7.621657 5.254054 39.021523 142 144 123
7.569279 5.524297 38.818871 191 184 166
7.039204 6.612103 36.139557 141 134 108
6.418929 6.683584 33.009670 184 171 152
5.914003 6.577339 30.336975 138 122 97
5.354465 6.601448 27.476505 139 123 97
5.130996 6.735091 26.322277 107 85 61
5.641705 -6.425794 28.781864 115 101 75
5.903983 -6.394849 30.095673 91 77 51
6.105739 -5.572992 31.152798 100 85 66
6.257481 -3.104798 31.995489 66 54 28
7.536215 0.119755 38.527802 113 107 85
7.681560 0.517131 39.136333 105 98 79
7.700834 0.660590 39.329754 122 115 96
7.716044 0.763363 39.445114 121 114 95
7.763053 1.388044 39.644760 118 108 83
7.824597 1.857603 39.987083 140 133 114
7.884818 2.114574 40.115379 137 135 112
6.224849 6.666428 31.777327 168 155 136
6.171178 -4.772101 31.331457 152 141 119
6.139497 -4.389777 31.244905 139 127 101
6.139937 -3.798920 31.248859 119 105 78
6.313267 -3.275212 31.935928 95 83 57
6.605736 -2.597463 33.592094 110 96 70
7.355368 -2.123783 37.425598 106 97 68
7.439860 -0.976503 37.745998 103 92 62
7.483466 6.388196 38.000256 100 94 72
5.727364 6.605058 29.072025 135 119 93
5.118941 6.938203 25.956854 149 133 107
6.163398 -5.190907 31.286737 77 60 42
6.205585 -4.573611 31.368347 141 129 103
7.479542 -1.468967 37.805378 115 107 84
7.493373 -0.742580 37.786530 97 91 67
7.452852 -0.371681 37.719147 162 157 135
7.651845 5.717217 38.636951 140 126 100
7.569323 6.285742 38.231903 106 99 80
6.426419 6.680569 32.484158 145 132 113
6.383853 6.666503 32.243095 151 138 119
5.704895 -6.411212 28.746994 102 90 64
6.114376 -6.486711 30.811684 98 84 58
6.192738 -5.599093 31.062366 137 129 106
6.203225 -5.049225 31.237707 103 88 67
7.761225 0.433249 39.076916 125 118 99
7.990355 1.815624 40.093697 151 146 126
8.071082 3.896432 40.607685 202 209 193
7.778301 5.090764 39.176712 191 194 173
7.481985 6.647552 37.563797 162 155 127
7.221531 6.663563 36.329071 118 108 83
6.575363 6.668707 33.082897 155 142 123
6.179236 6.652562 31.134644 146 130 105
5.932715 6.560290 29.785994 132 116 91
5.309717 6.654093 26.731514 161 141 116
5.252640 6.724393 26.372158 150 130 105
6.221853 -3.953000 31.048939 128 114 87
6.373224 -3.131868 31.953335 87 75 49
6.634035 -2.743558 33.125950 68 52 27
7.566474 -1.828256 37.781208 106 99 73
7.582002 -1.676641 37.916866 146 138 115
7.564476 -1.470435 37.870514 136 128 105
7.955900 1.228375 39.744522 129 119 92
8.062144 2.096279 40.311253 134 129 109
8.181491 2.548022 40.944237 138 136 111
7.714473 5.886016 38.556561 135 116 84
7.697452 5.955908 38.511219 150 139 117
5.824761 6.605706 29.175564 176 160 135
5.609779 6.596330 28.061901 144 128 102
5.171224 6.924812 25.849957 108 92 66
5.908879 -6.387372 29.426739 94 80 54
6.178641 -6.323144 30.813383 105 91 64
6.191486 -6.047626 30.883389 119 105 79
6.248313 -3.820662 31.168268 124 110 83
6.333233 -3.590486 31.560884 112 98 72
7.390451 -2.452843 36.763870 106 92 66
7.558709 -0.553346 37.718990 166 161 139
7.943809 0.787287 39.568855 107 100 81
8.445753 3.135492 41.988998 158 161 144
8.192608 4.533862 40.811646 166 168 154
7.896060 5.429688 39.267120 173 176 155
7.313011 6.695992 36.467239 159 148 126
5.372558 6.658498 26.777763 128 108 83
6.316428 -5.099596 31.244053 93 81 59
6.292056 -4.336171 31.203688 136 122 95
6.295604 -4.185093 31.187788 127 113 86
6.317780 -3.744358 31.260084 136 122 95
7.670633 -1.800084 37.924862 114 106 83
7.640323 -0.905502 37.793068 147 139 116
7.650661 -0.813057 37.818180 133 125 102
7.832671 0.211766 38.760727 165 163 140
8.349330 3.870810 41.479786 193 200 184
8.016496 5.022304 39.717381 191 192 174
7.264101 6.769246 36.018589 155 144 122
6.808043 6.626666 33.719387 165 154 132
6.301480 -5.332951 31.116638 70 49 30
7.102262 -2.614483 35.061508 68 54 27
7.671162 -1.255433 37.879326 107 99 76
7.668124 -1.013102 37.846142 109 101 78
7.662338 -0.350558 37.781502 148 146 123
8.086793 0.996608 39.835125 100 92 69
8.069777 1.493259 39.950005 148 140 117
8.452721 2.880588 41.746994 130 124 108
8.551235 3.386944 42.079029 178 179 165
7.811675 6.055692 38.511265 159 153 131
6.432776 6.677932 31.754568 171 159 137
5.894393 6.651936 29.085289 171 155 130
5.499622 6.585905 27.050255 187 167 140
6.265801 -6.233902 30.809599 99 85 59
6.282502 -6.085376 30.828831 70 55 34
6.330770 -5.672883 31.019753 50 35 14
6.381316 -4.732288 31.236807 150 138 116
6.339492 -4.478997 31.143600 142 128 101
6.454649 -3.322692 31.702435 88 76 52
7.548295 -2.516541 37.036964 83 68 45
7.636134 -2.394354 37.407513 84 69 48
7.956534 0.310951 39.005695 135 134 113
8.026783 5.538074 39.352036 160 155 135
7.977131 5.600060 39.211052 146 141 121
7.567890 6.711769 37.208836 144 136 117
7.465758 6.738892 36.596333 154 143 121
5.546983 6.653154 27.172663 157 137 110
6.343996 -5.858467 30.963598 50 35 14
6.396880 -4.570677 31.253859 141 127 100
7.821126 -1.430882 38.116840 123 115 92
8.218045 1.067471 40.015507 106 100 78
8.289052 1.673982 40.508942 139 131 110
6.902539 6.649554 33.724392 149 138 116
5.283125 6.679160 25.798470 149 129 104
6.087028 -6.474671 29.587948 97 83 56
6.352930 -6.072226 30.860044 82 67 46
6.389767 -5.515718 31.024458 79 61 41
6.779316 -2.792998 32.924229 89 78 50
7.865586 -2.048180 38.165653 115 105 80
7.879982 -1.580407 38.226814 106 98 75
7.824149 -0.496886 38.019897 148 146 125
7.441324 6.789403 36.131802 158 147 125
5.226050 6.772151 25.328367 203 183 158
6.690914 -2.941475 32.372631 83 76 50
7.669109 -2.580017 37.146000 112 97 74
7.903162 -1.760446 38.204895 130 122 99
7.931947 -0.998415 38.300140 163 155 132
7.884762 -0.584702 38.075348 126 124 103
8.290503 1.198467 40.137894 150 144 122
8.513847 2.390369 41.212677 95 88 59
8.641094 2.723853 41.725201 111 104 75
8.399652 4.939380 40.657791 172 175 158
8.181400 5.818716 39.572056 151 141 116
6.523877 6.635787 31.516027 125 113 91
6.428443 -5.977570 30.893206 130 115 94
7.722320 -2.664652 37.161980 102 90 64
8.391397 1.383750 40.353237 112 106 84
8.321497 5.387237 40.043575 200 201 183
7.904662 6.281477 38.157326 208 200 177
7.903159 6.449158 38.099510 222 214 195
7.857794 6.597165 37.864380 178 170 151
6.303184 6.612881 30.353792 124 110 84
6.444721 -5.850111 30.912857 132 117 96
6.514667 -4.230186 31.212156 126 112 85
6.518030 -4.035984 31.121630 144 130 103
7.873884 -2.410991 37.765236 87 76 54
7.987985 -1.892108 38.293278 136 129 103
7.974915 -1.548550 38.212578 79 71 48
8.000983 -1.344045 38.290470 113 105 82
8.059769 -0.157450 38.640263 137 136 116
8.523895 1.648690 40.775963 149 142 126
8.803633 3.864242 42.096138 156 157 139
8.315135 5.807554 39.852081 185 177 156
7.607222 6.781550 36.520248 134 123 101
7.387781 6.755975 35.434067 124 113 91
7.310105 6.713162 34.954517 115 104 82
6.168049 -6.573520 29.419031 107 95 71
6.534074 -5.012313 31.189571 82 70 48
6.566490 -4.675459 31.261635 139 125 99
7.002329 -2.703979 33.361401 72 58 29
8.018272 -2.149658 38.244598 99 93 69
8.027506 -1.411008 38.259468 110 102 79
8.184111 -0.059116 38.927166 127 126 106
8.303639 0.625161 39.642933 180 178 157
8.704929 2.394993 41.598354 110 104 72
8.756358 4.737041 41.758205 166 167 149
6.742707 6.653196 32.135330 150 138 116
6.319541 6.650573 30.145412 148 134 108
5.785712 6.675375 27.544422 153 133 106
6.535077 -5.476440 30.967356 153 136 116
6.547243 -5.372854 31.096935 170 153 133
6.585439 -4.200376 31.220404 120 106 79
6.655317 -3.173126 31.529562 96 83 64
8.878757 3.814562 42.262383 173 172 154
8.792251 4.825850 41.787148 190 191 173
8.784245 4.959677 41.787182 182 183 165
7.169983 6.713874 33.939114 161 149 127
6.175781 6.665606 29.333822 153 137 112
6.523405 -5.593748 30.904936 97 82 61
6.649309 -3.836853 31.317146 127 113 86
8.733127 2.050847 41.299896 147 138 121
8.902045 2.676101 42.066620 109 98 68
8.899158 4.476788 42.135490 197 194 177
8.832400 5.134423 41.751759 185 184 164
8.336763 5.902364 39.360649 146 131 110
8.091900 6.202364 38.217541 157 145 121
6.507075 6.664763 30.733891 142 128 102
6.563626 -5.811032 30.826225 68 53 32
6.557388 -5.729082 30.843781 124 109 88
6.728164 -3.561232 31.650211 85 70 47
6.887936 -2.893392 32.441254 97 87 62
7.539389 -2.776089 35.456711 76 65 35
8.231177 -1.519306 38.621872 126 118 95
8.191347 -1.117197 38.496387 128 120 97
8.222349 -0.436763 38.640915 162 159 142
8.746152 5.237977 41.109325 172 173 155
8.665828 5.397208 40.624680 171 172 154
8.605364 5.724817 40.442383 194 188 174
8.541697 5.853530 40.076458 178 170 151
7.007094 6.697718 32.865677 162 150 128
6.104517 6.678689 28.623018 142 126 101
6.566307 -6.355373 30.678440 89 75 48
6.664419 -4.493248 31.157774 146 132 105
6.735818 -3.400666 31.528753 74 59 38
8.224489 -2.147747 38.387966 136 131 109
8.320421 -1.871824 38.856045 104 96 73
8.493181 0.519361 39.781868 129 128 107
9.080830 4.138032 42.477367 164 163 143
8.150683 6.254703 38.041340 125 113 87
8.137924 6.323652 38.059902 159 147 121
8.091867 6.563805 37.909405 145 137 118
8.084547 6.650800 37.819103 180 172 153
6.271397 6.629875 29.331455 154 140 114
5.416296 6.772170 25.322046 155 135 110
6.595407 -5.915407 30.768032 52 37 16
6.618020 -5.682963 30.811790 69 54 33
6.680625 -4.176784 31.104906 144 130 103
6.686080 -4.141768 31.116627 151 137 110
6.858590 -2.989950 31.910778 71 58 41
8.508780 0.172736 39.705059 142 141 123
8.864076 1.866025 41.325756 174 169 147
9.149888 3.340421 42.580902 97 90 72
8.296695 6.057538 38.569607 157 145 119
7.988657 6.756693 37.148926 143 135 116
6.777421 6.640318 31.636972 186 174 152
5.734857 6.706124 26.787790 159 139 112
6.738794 -5.031354 31.246874 106 94 72
8.392942 -0.740641 38.885635 158 155 138
8.570909 0.891278 39.805027 129 128 107
9.130082 4.603264 42.420822 155 157 135
8.657428 5.852193 40.208427 156 147 130
7.270830 6.672179 33.662868 116 104 82
6.982523 6.670758 32.358521 160 148 126
6.651109 6.717784 30.767567 153 139 113
5.979780 6.695160 27.720495 138 118 93
5.637594 6.639064 26.074186 145 125 98
6.656229 -6.345481 30.645111 96 82 56
6.633129 -6.121806 30.653673 112 97 74
6.768286 -4.713265 31.177101 152 140 116
6.741229 -4.499067 31.087372 132 118 91
8.159588 -2.513177 37.678604 139 132 106
8.556904 -1.380809 39.417912 111 103 80
8.592726 0.713320 39.714561 98 97 76
9.258973 2.770082 42.661221 120 109 81
9.123851 4.885102 42.056816 165 163 142
9.107453 4.933534 42.022678 186 184 163
8.881239 5.305077 40.995358 161 162 144
6.363709 6.627687 29.402115 144 130 104
5.888331 6.741369 27.184443 139 119 92
5.527184 6.710851 25.469357 186 164 140
6.571287 -6.546247 30.159796 104 90 63
6.804883 -4.826003 31.236000 139 127 105
6.760467 -4.077706 31.024490 131 115 90
6.822138 -3.205861 31.364285 73 58 39
8.541451 -1.553798 39.285580 88 80 57
8.519910 -0.620641 39.128330 141 140 120
8.632893 -0.248515 39.710213 159 156 137
9.264160 2.485829 42.473934 82 71 43
9.203500 4.760955 42.277332 170 169 149
8.248380 6.357490 37.972263 183 171 147
8.170410 6.797145 37.459492 119 108 88
6.732431 -5.773277 30.772923 141 123 103
6.832664 -5.012903 31.243637 144 132 110
6.802059 -4.310397 31.042133 95 81 54
6.898884 -3.361333 31.517618 89 74 55
8.131628 -2.775203 37.156113 100 93 65
8.674054 1.062428 39.679470 152 145 126
8.767631 1.408489 40.080437 144 137 118
9.128067 2.044706 41.782997 150 144 122
9.447257 3.724373 43.189274 153 142 122
8.228055 6.752223 37.682465 188 177 157
7.054708 6.671868 32.140484 171 165 143
6.917059 6.677669 31.543594 148 140 117
5.990190 6.705394 27.472406 160 143 115
5.625596 6.635415 25.644684 132 108 74
6.828177 -3.819179 31.127090 123 111 89
8.300932 -2.478848 37.827190 128 121 93
8.759339 -1.519966 39.789707 91 83 60
8.761986 0.514359 39.914856 158 153 131
9.478554 3.626358 43.209732 139 128 108
9.558508 4.153903 43.518162 152 144 123
8.402062 6.177475 38.114151 163 150 131
6.299922 6.626701 28.655352 149 135 109
6.799881 -6.605406 30.796803 101 87 60
6.824376 -5.575480 30.875170 158 141 121
7.246795 -2.899774 32.904099 74 62 38
8.292759 -2.726094 37.558418 106 99 71
8.656515 -1.910752 39.246078 122 114 91
8.792109 -1.457051 39.837753 104 96 73
8.758302 1.262829 39.769768 172 165 146
9.492783 3.127235 42.957150 91 81 54
9.065816 5.380052 41.083073 171 168 149
8.992707 5.630848 40.774143 164 161 142
6.555126 6.649239 29.730524 189 177 151
5.576944 6.795332 25.230145 139 124 105
6.777074 -6.161907 30.571022 81 67 41
6.950132 -5.019062 31.348089 133 121 99
6.939583 -4.751488 31.252893 130 118 96
6.848628 -4.274895 30.937223 121 104 78
8.322893 -2.685820 37.587204 104 98 72
8.460718 -2.301671 38.222595 60 53 34
8.889233 0.013797 40.027744 125 119 97
9.569275 4.620830 43.190037 160 154 132
9.302512 5.337562 41.978355 177 172 153
8.256510 6.839355 37.211517 135 123 101
6.950638 6.699789 31.410122 166 154 130
6.195138 6.651209 27.927254 142 128 102
6.814627 -6.429379 30.628590 102 88 61
6.915324 -4.014086 31.029324 157 143 117
6.915845 -3.756257 31.124754 111 99 77
7.259897 -2.988941 32.532837 72 60 38
8.888284 0.489343 39.993954 99 93 71
9.347723 2.269158 42.030735 114 110 83
9.437488 2.442374 42.340317 154 150 123
9.660398 4.696759 43.384548 159 153 131
8.193877 6.941752 36.770576 116 104 82
6.373838 6.641310 28.669348 145 131 105
6.577511 -6.507050 29.389540 94 80 53
6.834548 -6.277839 30.541927 85 71 45
7.040221 -3.405066 31.403744 83 68 47
7.358363 -2.944927 32.878605 74 61 42
8.324213 -2.810770 37.144218 103 97 71
8.777966 -2.048861 39.206043 91 84 65
8.793339 -1.826248 39.372089 99 91 68
8.816338 -1.766719 39.430737 103 95 72
9.000664 -1.029323 40.144592 70 62 39
8.973332 -0.789979 40.114269 132 122 97
9.803679 3.614175 43.785889 124 113 91
9.706918 4.820458 43.390476 168 163 143
9.548370 4.969189 42.696953 164 162 141
7.881714 6.797623 35.200363 141 129 107
7.257006 6.687025 32.450661 125 119 97
6.703531 6.676709 29.933498 156 146 121
6.137340 6.649201 27.347996 174 157 129
6.056968 6.681828 27.096741 160 143 115
6.953913 -5.406426 30.986124 130 115 94
7.002326 -4.107724 31.079397 154 142 116
7.015547 -3.906254 31.217535 124 114 89
8.997432 -0.603019 40.065495 121 111 84
9.868517 3.794257 43.989307 124 113 91
9.808575 4.629522 43.678513 168 160 137
8.523417 6.333942 38.057999 180 169 149
8.515875 6.709906 37.820389 170 159 137
8.266171 6.854390 36.797943 127 115 93
5.870120 6.601953 26.051359 133 116 88
7.168072 -3.123085 31.816555 77 62 43
8.958027 -1.627336 39.762024 146 138 115
9.054461 -1.262917 40.170120 90 82 59
6.176975 6.651159 27.404640 151 134 106
5.792223 6.653706 25.686804 158 139 107
7.121546 -4.595900 31.378721 155 139 113
7.086714 -3.703265 31.283440 70 55 34
7.139393 -3.482228 31.505524 72 57 36
7.471944 -3.025646 33.036304 66 53 34
9.114187 -1.136098 40.267258 115 107 84
9.146114 0.830584 40.366619 91 83 62
9.143557 1.142635 40.244137 139 132 113
9.233225 1.436749 40.695286 110 103 84
9.513197 5.534205 42.052975 170 164 138
8.455175 6.783247 37.251320 122 112 87
6.842139 6.695161 30.205256 146 138 115
5.872059 6.605490 25.945580 145 128 98
5.771249 6.745385 25.501734 171 153 131
7.113429 -5.269076 31.255384 159 144 123
7.117463 -3.929658 31.260376 153 146 120
9.187133 -0.781179 40.277359 118 108 81
9.181878 0.942560 40.410847 82 74 53
9.505246 2.045269 41.713974 124 124 100
10.028547 3.383943 44.044937 106 96 69
10.202399 4.211806 44.764610 114 104 79
10.031223 4.896434 43.939331 173 167 143
8.634307 6.562368 37.923046 157 147 122
7.651545 6.616135 33.684811 128 116 94
7.055061 6.708746 31.051939 178 170 147
7.067244 -5.588406 30.961763 85 74 46
7.150494 -5.107171 31.330450 102 90 68
7.171689 -4.830685 31.349436 141 129 107
8.468164 -3.104014 37.064243 96 84 62
8.554993 -2.983770 37.404457 105 93 69
9.051259 -1.786019 39.558315 58 50 27
9.159376 -1.349598 40.085789 128 120 97
9.169962 -0.483987 40.010456 124 114 87
9.589892 2.244878 41.908913 89 87 64
9.725743 2.740554 42.524986 147 145 122
9.910113 3.020272 43.233162 107 97 70
9.992105 5.151779 43.681534 168 163 141
8.937306 5.936217 39.108265 182 171 149
8.715120 6.231561 38.194004 212 204 183
6.539604 6.747031 28.678654 136 122 96
5.986609 6.618067 26.204584 148 131 103
5.829692 6.876022 25.498590 219 210 193
7.021680 -6.290305 30.619780 77 63 37
7.186686 -4.565035 31.372496 133 122 94
7.171161 -4.411893 31.287817 134 123 95
7.184425 -3.864802 31.330084 128 122 98
9.357791 1.397938 40.631752 117 110 91
9.712120 6.048420 42.176361 178 167 145
8.767168 6.480967 38.122608 185 175 148
7.324127 6.678421 31.839792 198 192 170
6.363345 6.652889 27.697508 167 151 126
6.164609 6.682652 26.842690 145 128 100
7.223995 -5.362187 31.254276 70 55 34
7.247638 -4.665818 31.408579 124 117 88
8.726076 -2.833285 37.892658 98 96 73
8.908000 -2.267621 38.609676 64 57 38
9.241038 -0.442798 39.909145 115 109 85
10.389925 4.628405 44.937920 153 138 109
8.824573 6.252609 38.267616 166 160 138
7.283808 -4.768867 31.402914 159 147 125
9.260218 -1.548097 39.913795 105 97 74
9.279958 -0.194648 40.162621 140 129 109
9.329666 0.024101 40.274620 135 124 104
9.793322 2.695231 42.412922 134 130 105
10.033239 3.049348 43.403809 137 127 100
10.377007 4.055394 44.787685 108 98 71
6.164587 6.673634 26.641277 191 174 146
7.159728 -6.274574 30.821674 102 88 62
7.200771 -6.003852 30.912100 99 87 61
7.222679 -5.916221 31.006853 117 110 81
7.295643 -5.248894 31.317497 119 104 81
7.520010 -3.283789 32.367332 71 56 37
9.375130 -0.086925 40.221855 139 128 108
9.364257 0.108471 40.301331 157 146 126
9.539955 1.573605 41.056358 121 119 96
10.241323 3.250330 43.940296 149 142 114
7.024679 6.742130 30.210596 111 105 83
7.240679 -5.825384 31.063236 98 91 62
7.385292 -3.942226 31.612698 115 109 85
7.429664 -3.666855 31.749275 85 68 50
7.505748 -3.413345 32.121147 82 67 48
7.516870 -3.385810 32.172462 78 65 46
9.210129 -1.803282 39.493320 121 113 92
9.373465 -0.712827 40.199760 141 130 108
9.328341 -0.456640 39.914165 136 125 103
9.427850 0.269718 40.393772 80 72 53
9.702436 1.888417 41.508152 100 94 72
10.513960 4.884109 44.941204 160 146 119
8.898795 6.448257 38.172302 189 182 156
8.276572 6.742020 35.406132 166 154 132
8.034408 6.694182 34.380993 128 116 94
6.618350 6.666301 28.262630 161 147 121
6.478366 6.644009 27.681084 121 107 81
6.204971 6.738984 26.492792 170 156 129
6.961110 -6.550467 29.631334 94 80 54
7.063791 -6.610314 30.063545 100 86 60
7.435408 -4.240037 31.679199 127 115 93
9.405912 -0.347133 40.043400 113 102 80
9.429115 -0.055631 40.182003 129 121 98
10.387101 3.488693 44.298458 129 123 97
9.549096 6.054473 40.681328 163 152 132
8.915293 6.539182 38.040604 216 210 186
7.958733 6.633710 33.868324 144 132 110
7.625587 6.655982 32.449787 171 169 148
6.760524 6.657871 28.797602 184 170 144
7.456968 -4.735793 31.581106 145 139 113
7.467628 -4.616361 31.674313 148 143 114
7.482876 -3.656217 31.768393 82 67 46
10.621719 5.093046 45.000233 178 173 151
9.032864 6.387589 38.405495 158 144 133
7.483013 6.672369 31.692970 189 192 171
6.487145 6.692708 27.492941 146 135 107
6.439270 6.743601 27.319128 170 159 131
6.157809 6.953561 26.163862 174 168 144
6.088304 6.974638 25.876287 187 181 159
7.319673 -6.422426 30.906744 93 79 53
7.351590 -5.507921 31.086676 124 110 84
7.531549 -4.487680 31.826517 168 163 134
7.633107 -3.327093 32.258148 91 78 59
8.759107 -3.129084 37.021793 77 69 48
8.888673 -2.973868 37.570637 95 90 68
9.320355 -1.938478 39.414318 70 64 42
9.670855 0.620332 40.797836 124 116 95
10.690001 4.500311 45.160908 125 114 86
10.638028 5.153268 44.979969 162 157 135
8.938066 6.683092 37.792736 141 137 112
8.709189 6.712289 36.826660 153 146 120
8.513603 6.720039 35.985191 147 135 113
7.288011 -6.575886 30.702978 99 85 59
7.339419 -6.469158 30.880848 92 78 52
7.372671 -5.984591 30.992264 108 101 73
7.541178 -4.593281 31.738665 180 174 148
7.602482 -4.289974 31.932728 122 111 91
7.591012 -3.444133 31.946339 76 61 38
9.146194 -2.440794 38.467499 61 55 33
9.521754 -1.292457 40.119812 127 119 96
9.559311 -1.108213 40.257290 64 56 33
9.622530 0.056697 40.382729 176 168 145
10.027419 2.598381 42.287071 174 167 148
10.502311 3.427269 44.221706 193 189 164
10.778062 4.615147 45.291321 144 133 105
9.488873 6.086272 39.877197 198 187 167
9.070749 6.576821 38.122795 195 194 173
6.438773 6.758686 27.081675 187 176 148
7.445501 -5.805096 31.141945 124 117 89
7.497264 -4.948889 31.449074 159 149 124
8.370283 -3.138479 35.001072 64 49 30
10.620193 3.721547 44.414482 155 145 118
10.902214 5.009820 45.732910 123 112 84
10.677926 5.727886 44.642239 186 184 161
9.224844 6.362922 38.619862 198 189 172
8.117456 6.644802 34.014332 168 156 134
7.235190 -6.692998 30.208391 94 80 54
7.377321 -6.511888 30.782036 103 89 63
7.407838 -6.370594 30.906141 93 81 55
7.486434 -5.632751 31.220083 121 111 84
9.463042 -2.306477 39.470963 105 99 77
9.623991 -1.468240 40.170765 33 27 5
9.675908 -0.721334 40.298592 121 110 88
9.675537 0.200281 40.406788 93 85 66
10.084484 2.120193 42.045403 128 120 99
10.608297 6.057555 44.224014 154 152 129
10.511780 6.102449 43.864056 148 143 121
8.901026 6.654700 37.069912 144 144 120
7.836446 6.688890 32.677834 125 119 97
7.386841 6.768198 30.863049 184 176 155
6.906717 6.581450 28.817144 194 182 158
6.644140 6.637826 27.795391 167 152 129
7.441648 -6.199440 30.914522 117 105 79
7.780288 -4.232131 32.338207 185 180 158
7.847794 -3.341314 32.527737 101 93 72
8.749176 -3.003038 36.302494 97 92 70
9.669618 -0.915240 40.285126 124 116 93
9.667389 -0.203428 40.170544 115 108 82
10.183704 1.887214 42.300571 118 110 89
10.576336 3.315249 43.939678 97 93 68
9.364773 6.340490 38.882191 115 108 89
8.744555 6.638194 36.380116 152 150 125
6.226136 6.954495 25.887379 161 156 136
7.573379 -5.341485 31.340216 177 165 139
7.612486 -4.782769 31.477959 145 133 107
7.796515 -3.720192 32.277969 78 71 43
7.786300 -3.600200 32.233608 101 94 66
7.839407 -3.435059 32.417233 81 73 50
7.958076 -3.227059 32.960423 69 61 40
10.035473 0.940938 41.447487 92 84 61
10.374008 1.688235 42.874748 87 79 58
10.240116 2.395904 42.340439 131 124 105
11.040812 4.714075 45.660667 154 143 115
9.148232 6.607738 37.861103 168 175 159
8.414371 6.659949 34.868256 108 96 74
8.164889 6.635529 33.843861 201 189 167
7.792155 6.736348 32.219852 181 180 160
6.600633 6.761829 27.318651 132 125 99
6.445925 6.755407 26.670988 173 166 140
7.581875 -5.820323 31.226936 147 137 110
7.601879 -5.031303 31.402096 150 138 112
9.595207 -1.991248 39.585598 67 61 39
11.182343 5.661159 46.095226 164 157 131
10.859152 6.143934 44.743618 165 163 140
8.041203 6.632168 33.207298 167 156 134
6.425780 6.879065 26.517994 190 179 157
7.509650 -6.407585 30.803217 127 115 89
7.567000 -5.986210 31.060076 161 149 123
7.877142 -4.355376 32.315262 185 182 163
8.117269 -3.397074 33.323006 106 98 77
9.743856 -0.479952 40.047562 102 91 69
9.752287 -0.319525 40.134418 125 114 92
10.491365 1.842322 43.088806 134 126 105
10.483418 3.024803 43.061161 150 149 128
10.727492 3.430431 44.103165 148 147 126
10.813980 3.779964 44.363617 155 144 122
11.012641 5.977761 45.277069 161 159 136
10.249416 6.289224 42.096100 175 164 144
7.524722 -6.389249 30.807991 137 127 100
7.627792 -5.871339 31.229914 178 166 140
9.234457 -2.804243 37.796478 93 85 64
9.299019 -2.609146 38.072273 81 73 52
9.808869 -0.073962 40.135441 132 125 99
9.972044 0.611281 40.706192 90 82 61
10.232374 1.060209 41.782791 108 98 71
10.675272 3.149798 43.720226 118 117 96
10.832314 3.650491 44.266850 155 147 126
10.990826 4.221152 44.933193 118 107 85
10.943324 6.113772 44.695518 169 167 144
6.752645 6.747563 27.569927 170 163 137
6.568414 6.852096 26.828606 157 146 124
6.525743 7.082745 26.665390 127 120 101
7.720600 -5.498256 31.449341 144 134 107
7.774237 -4.689240 31.687315 176 170 148
7.832825 -4.572183 31.865749 146 140 118
9.874219 -1.218548 40.249405 93 85 62
10.968422 2.371608 44.644623 141 134 115
11.231371 4.642299 45.735966 135 124 96
11.591300 5.624609 47.160637 170 160 133
11.549335 5.817745 47.023087 176 166 139
8.835347 6.633606 35.972019 151 139 117
7.944269 6.787222 32.321705 226 223 204
7.116807 6.574508 29.015373 179 168 148
6.677649 6.803380 27.221849 142 136 112
8.086872 -3.994757 32.778648 113 117 94
9.210714 -2.954242 37.376694 63 65 41
9.741165 -2.266967 39.509747 108 102 80
9.932958 -0.802211 40.169796 126 118 95
9.937005 0.109838 40.250713 80 72 51
9.993083 0.306690 40.386093 105 97 78
10.831595 3.235611 43.906384 134 133 112
9.831209 6.478748 39.869320 201 197 186
