ply
format ascii 1.0
element vertex 1163
property float x
property float y
property float z
property uchar red
property uchar green
property uchar blue
end_header
-2.418856 3.354817 17.313007 162 151 131
-2.412098 3.472564 17.335379 179 173 149
-2.379019 4.083756 16.969065 135 118 92
-2.501340 1.298580 18.092203 156 149 123
-2.455135 2.050241 17.739105 159 152 126
-2.443135 2.578015 17.688725 144 132 106
-2.406060 3.283874 17.359718 159 148 128
-2.510288 0.894159 18.243843 132 121 101
-2.468829 1.504923 17.967113 151 143 120
-2.409466 3.006171 17.485332 152 141 119
-2.358694 3.917495 17.183876 156 145 117
-1.311348 -1.350502 9.595307 141 145 131
-1.305112 -0.993198 9.567076 198 203 196
-2.464484 1.403595 18.105381 156 144 118
-2.400124 2.860307 17.592922 149 137 111
-2.365481 3.699141 17.354435 141 129 103
-2.350228 3.954848 17.169310 169 155 128
-1.305009 -1.320214 9.641704 155 159 145
-2.484418 0.944706 18.297503 167 155 133
-2.484382 1.036673 18.354565 154 144 119
-2.431268 1.607888 17.948290 172 164 141
-2.430142 1.675960 17.936096 199 191 168
-2.419922 2.290478 17.828218 131 121 94
-2.352535 3.443064 17.375996 143 137 115
-2.351418 3.535640 17.385891 151 143 122
-2.332595 3.852690 17.233549 161 149 123
-1.296164 -1.295891 9.677208 167 171 156
-1.309227 -1.173927 9.722131 124 132 111
-1.286090 -1.021030 9.544187 206 209 198
-2.476344 0.898090 18.340706 169 156 137
-2.453441 1.307479 18.239803 145 138 110
-2.397178 2.530509 17.806557 147 135 109
-2.343084 3.109622 17.461561 151 140 118
-2.291457 4.091059 17.086781 134 114 89
-1.278031 -1.417428 9.562952 181 185 171
-2.457985 1.138704 18.420420 153 143 118
-2.392890 1.801241 17.942451 203 197 173
-2.386426 2.214286 17.916363 143 136 108
-2.330587 3.208009 17.497116 127 116 96
-2.330976 3.449416 17.412996 140 132 111
-2.279901 4.048614 17.144245 134 117 91
-2.285455 4.081173 17.106848 143 123 98
-2.278267 4.258084 17.095005 137 117 92
-2.363397 2.386014 17.843948 136 124 98
-2.306338 3.494811 17.426937 147 141 119
-2.316553 3.682897 17.451828 145 133 111
-1.274411 -1.299242 9.694706 145 148 129
-2.407325 1.242577 18.388485 164 153 131
-2.377022 1.511155 18.148664 118 110 87
-2.321691 3.029840 17.675875 162 150 124
-2.305166 3.240661 17.515835 146 135 115
-2.299044 3.302213 17.504503 164 153 133
-2.291699 3.463835 17.430885 138 132 110
-2.291914 3.619135 17.477081 140 127 108
-2.278375 3.904271 17.343531 171 159 133
-1.269792 -1.291755 9.707166 150 153 134
-2.378983 1.413515 18.269932 136 130 104
-2.338008 1.912777 18.017227 140 132 109
-2.284817 3.707273 17.461128 161 149 125
-2.209901 4.355904 17.000116 135 117 93
-2.370749 1.366687 18.299448 149 143 117
-2.350309 1.771948 18.067141 139 131 108
-2.321204 1.871281 18.018257 151 143 120
-2.331564 2.069147 17.987696 148 138 111
-2.316756 2.738821 17.872244 163 151 125
-2.305173 2.825955 17.873829 151 139 113
-2.305568 2.894052 17.843088 154 142 118
-2.286385 3.184773 17.657320 145 133 107
-2.259229 3.556000 17.495275 154 146 125
-2.252363 3.891575 17.424118 158 146 120
-2.311560 1.922766 18.057283 137 129 106
-2.303563 2.466131 17.903332 137 123 97
-2.271660 3.139225 17.720032 151 139 115
-2.226861 4.007283 17.370155 143 131 105
-2.182357 4.356481 17.115715 160 140 115
-1.219218 -1.474879 9.539435 168 172 158
-1.214888 -1.423917 9.568626 112 116 101
-2.356594 1.180770 18.512945 137 131 107
-2.293690 2.829169 17.899342 160 148 122
-2.224412 3.739476 17.534231 136 124 98
-1.199301 -1.591686 9.524239 151 153 140
-2.338155 0.895740 18.494226 175 169 147
-2.295300 1.566306 18.211311 92 84 61
-2.281173 2.356083 18.002134 136 124 98
-2.269386 2.652672 17.918270 150 138 112
-2.232679 3.234762 17.656343 157 146 126
-2.208826 3.550854 17.537176 133 125 104
-1.192899 -1.521571 9.527746 155 159 145
-1.201636 -1.433971 9.571303 125 129 114
-2.277541 1.936277 18.081779 129 121 98
-2.274674 2.214789 18.081484 139 129 102
-2.241199 3.041887 17.885019 150 140 115
-2.315270 0.878331 18.523813 174 169 147
-2.248487 2.041136 18.060814 144 134 107
-2.248961 2.099676 18.092113 171 161 134
-2.235191 2.525841 17.984789 176 164 138
-2.217427 3.192513 17.830149 169 161 138
-2.179594 3.775115 17.570633 149 137 111
-2.178763 3.956750 17.463152 131 121 94
-2.165598 4.134799 17.422333 145 129 104
-1.180575 -1.544272 9.538541 166 170 156
-2.238300 1.672828 18.215946 160 152 129
-2.230114 2.400335 18.015242 153 141 115
-2.214411 2.938645 17.968592 139 127 103
-2.170324 3.828159 17.594065 162 150 124
-2.178979 3.881471 17.560211 165 153 127
-2.170141 3.939804 17.538368 150 138 112
-2.159131 4.031875 17.475130 166 154 128
-2.269718 0.926566 18.551762 177 172 150
-2.193297 3.122032 17.928665 163 155 132
-2.210970 1.780109 18.259632 154 146 123
-2.202924 1.821623 18.143015 120 112 89
-2.210085 2.309027 18.156248 155 145 118
-2.133723 3.551857 17.695673 144 138 116
-2.241660 1.127577 18.618902 162 160 139
-2.166626 2.649031 18.015875 177 165 139
-2.165171 2.750876 18.035437 151 139 113
-2.145025 3.368572 17.869452 146 135 115
-2.114856 4.209064 17.540501 137 119 95
-2.211521 1.550216 18.459194 124 116 93
-2.160371 2.925460 18.078161 161 149 125
-2.150314 3.015270 18.050894 170 158 136
-2.119074 3.560011 17.733059 141 135 113
-2.106016 4.143800 17.608067 152 138 112
-2.207626 1.091610 18.633900 191 189 168
-2.206115 1.277162 18.649687 172 174 150
-2.133223 3.072308 18.041048 136 130 108
-2.132951 3.202254 18.004242 134 128 106
-2.129411 3.261189 17.991608 116 110 88
-2.188109 0.990109 18.638069 205 203 182
-2.198661 1.181920 18.688335 164 162 141
-2.145544 2.045421 18.188843 165 155 128
-2.123680 2.879833 18.114595 142 130 104
-2.091644 3.525479 17.860121 148 140 119
-2.079654 3.783793 17.662956 162 150 124
-2.078694 3.980123 17.679739 157 145 119
-2.119035 2.156467 18.250006 177 166 144
-2.128994 2.362633 18.221645 154 142 116
-2.097838 2.502420 18.084957 120 108 82
-2.063874 3.695539 17.758930 157 145 123
-2.066719 3.743232 17.723669 164 152 130
-2.067470 3.898972 17.742373 138 126 100
-2.158364 1.336658 18.723082 146 140 118
-2.095386 2.798743 18.129957 158 146 120
-2.092567 3.145681 18.098200 172 164 143
-2.054138 3.670924 17.780666 141 130 108
-2.149636 1.259905 18.766424 168 163 143
-2.136821 1.755048 18.628143 146 138 115
-2.089480 2.376037 18.279385 163 151 125
-2.091266 1.963501 18.449028 136 128 105
-2.026457 4.023379 17.905281 133 121 95
-2.106194 1.020317 18.745958 202 201 180
-2.113101 1.142528 18.743973 170 169 148
-2.067694 2.331428 18.345385 165 153 127
-2.041459 2.693528 18.156301 138 126 100
-2.037828 3.289687 18.075085 148 140 119
-2.056368 2.105964 18.499615 162 156 132
-2.039602 2.416409 18.299419 127 115 89
-2.033386 2.927562 18.231392 173 163 138
-2.011465 3.432432 18.038239 132 124 103
-1.074648 -1.205402 9.743372 91 95 80
-2.082386 1.490834 18.823133 142 134 111
-2.076946 1.619510 18.864471 69 61 38
-2.052501 2.075160 18.523453 151 145 121
-2.010116 2.762255 18.230942 150 138 112
-2.015768 2.980210 18.246670 147 139 116
-2.015104 3.074161 18.247492 151 143 122
-1.996878 3.550363 18.012596 139 131 110
-1.983681 3.743998 17.976377 147 135 113
-1.989143 3.770673 17.967857 146 134 112
-1.978554 4.144271 17.919340 127 113 87
-1.068357 -1.177252 9.762018 160 168 155
-2.073696 1.283930 18.852840 186 183 164
-2.026789 2.188132 18.514112 139 128 106
-1.994345 2.523470 18.234200 159 147 121
-1.995563 2.701671 18.243618 131 119 93
-1.977682 3.704419 18.016336 135 124 102
-1.978277 3.985192 18.025642 141 129 103
-1.980019 4.085042 18.046238 138 124 98
-2.050016 1.765389 18.921608 126 118 95
-2.023150 2.143287 18.605215 159 151 128
-2.015771 2.363071 18.493731 148 136 110
-1.994448 2.419639 18.415043 143 131 105
-1.975698 2.639500 18.248299 142 130 104
-2.044964 0.880847 19.043730 137 139 118
-2.009066 2.250763 18.568031 139 127 105
-1.965484 3.189846 18.246342 153 145 124
-1.945478 3.691329 18.138521 143 135 112
-1.045243 -1.242509 9.764922 169 173 158
-2.023856 0.971697 19.054745 204 206 185
-2.024311 1.910200 19.005314 153 145 122
-1.963716 2.550024 18.273891 138 126 100
-1.943003 3.349280 18.168503 150 142 121
-1.925216 3.431191 18.169834 163 155 134
-1.912097 4.482290 17.999340 137 125 99
-2.032612 0.783495 19.170227 210 212 191
-1.996968 1.231739 18.961464 180 183 164
-1.962605 2.423822 18.673841 141 129 103
-1.930393 2.652781 18.351702 134 122 96
-1.934472 2.961086 18.366526 146 138 115
-1.915880 3.951282 18.245283 153 141 115
-1.992195 1.183340 19.008158 170 173 154
-1.987035 1.483725 19.010439 133 128 108
-1.971216 2.166659 18.820538 121 113 90
-1.957376 2.306287 18.794765 124 112 90
-1.928766 2.683186 18.378263 150 138 112
-1.910329 3.438647 18.230991 164 156 135
-1.909907 4.175118 18.269588 135 121 95
-1.967761 1.355073 19.050617 175 174 156
-1.915598 3.101805 18.426077 147 139 118
-1.880464 3.538136 18.263340 157 149 128
-1.949602 1.285078 19.042015 198 199 183
-1.959303 1.669139 19.108448 150 142 119
-1.884622 2.880121 18.450502 149 137 111
-1.865724 3.751961 18.330416 165 154 132
-1.870738 3.896417 18.321487 127 115 91
-1.862490 4.296100 18.233709 141 127 101
-1.877799 2.988806 18.461340 170 162 139
-1.868188 3.248587 18.474854 157 149 128
-1.862064 3.330366 18.425291 160 152 131
-1.870058 3.657442 18.329521 138 132 108
-1.857051 4.163106 18.369095 142 128 102
-1.850616 4.447411 18.174850 147 137 110
-1.922061 1.455488 19.100267 167 166 145
-1.891624 2.777136 18.826988 135 125 98
-1.843380 4.195660 18.382889 139 127 105
-1.833381 4.661690 18.313206 134 122 100
-1.936370 0.701857 19.432140 192 194 170
-1.922051 0.767754 19.407284 194 189 169
-1.927477 0.816049 19.404778 177 175 154
-1.905665 1.847494 19.207449 127 120 94
-1.883962 2.362305 19.040564 150 135 112
-1.888900 2.482352 18.990974 149 137 111
-1.847459 3.058270 18.532864 142 136 112
-1.828372 3.987009 18.426739 158 144 118
-1.825696 4.648592 18.336004 113 101 79
-1.903722 1.038640 19.357071 206 208 187
-1.878193 2.058903 19.216951 145 138 112
-1.855754 2.827698 18.823868 156 146 119
-1.844604 2.868357 18.691486 157 147 120
-1.808469 3.886825 18.433733 159 147 123
-1.814484 4.449000 18.262848 142 130 108
-1.798624 4.567961 18.317463 136 124 102
-1.891126 1.190437 19.265013 179 181 160
-1.861332 1.373254 19.162056 181 180 159
-1.875249 1.587144 19.159893 158 157 129
-1.854833 2.738600 18.983440 151 141 114
-1.816665 2.928889 18.627554 142 130 104
-1.793512 3.441865 18.436707 138 131 105
-1.842903 2.173345 19.175817 138 132 108
-1.841076 2.499504 19.092363 141 129 105
-1.774565 3.764234 18.451511 166 154 132
-1.788489 3.944384 18.482344 135 120 97
-1.784541 4.104390 18.500607 125 110 87
-1.775434 4.364840 18.369740 136 124 102
-1.869414 0.665131 19.564852 135 131 106
-1.863803 0.804318 19.542278 201 196 176
-1.847832 1.945340 19.278185 219 213 189
-1.827231 2.397487 19.133926 172 160 136
-1.803793 2.896046 18.865196 139 129 104
-1.775935 3.157370 18.595533 160 152 131
-1.767054 3.216369 18.575905 172 164 143
-1.764595 3.361382 18.514542 165 157 136
-1.773721 3.656595 18.480965 149 138 116
-1.756853 4.508840 18.403921 141 129 107
-1.849276 0.313815 19.638556 155 153 130
-1.843145 1.114479 19.415930 192 191 170
-1.823894 2.034337 19.283405 179 173 149
-1.763385 3.033254 18.658222 142 134 113
-1.751080 3.310654 18.523781 150 142 121
-1.796885 2.328378 19.172127 147 136 114
-1.732443 3.419595 18.567318 140 132 109
-1.818477 0.559162 19.677679 199 189 164
-1.804968 0.962651 19.580526 199 199 173
-1.808655 1.075880 19.550816 174 172 149
-1.795655 1.237997 19.458673 193 191 168
-1.786927 1.343972 19.375914 141 140 119
-1.766354 2.958296 18.928732 147 135 111
-1.713464 3.508538 18.519499 119 111 90
-1.763820 2.265370 19.228348 168 162 140
-1.688771 3.999082 18.583147 160 149 127
-1.694854 4.626915 18.590260 153 141 119
-1.311264 -1.975205 14.024309 183 187 172
-1.765825 1.296856 19.488253 159 157 134
-1.755296 1.808334 19.348627 182 177 157
-1.744707 2.011610 19.335049 162 157 137
-1.742791 2.685309 19.317415 123 115 92
-1.749300 2.889173 19.295544 139 128 106
-1.724350 3.100350 19.163504 156 148 129
-1.708052 3.304789 18.798689 180 172 151
-1.679543 3.681697 18.628250 145 137 118
-1.678581 4.209463 18.609077 140 129 107
-1.686508 4.293470 18.565958 149 137 115
-1.680660 4.757595 18.726097 125 113 91
-1.733429 1.414605 19.448792 205 204 183
-1.734251 1.625350 19.377901 92 94 72
-1.736465 2.082152 19.366982 185 180 160
-1.731677 2.982847 19.334003 154 142 120
-1.663265 4.389582 18.620199 148 136 114
-1.755764 0.385194 19.809704 177 170 142
-1.756995 0.587146 19.829897 145 140 111
-1.733225 1.307802 19.546247 144 142 119
-1.714567 2.203387 19.364111 147 145 124
-1.657153 3.811190 18.618837 139 132 113
-1.752117 0.122780 19.998335 156 156 130
-1.742130 0.245422 19.921640 210 208 185
-1.738747 0.510006 19.820467 183 178 149
-1.717013 1.058211 19.683704 157 153 128
-1.722912 1.181486 19.610512 190 186 161
-1.716109 1.502822 19.446905 171 170 149
-1.688862 2.387153 19.339972 177 169 150
-1.673365 3.234150 19.217623 131 124 106
-1.642585 4.839670 18.866098 155 143 121
-1.739391 0.015179 20.065384 209 207 186
-1.710392 0.814609 19.783293 227 220 194
-1.612962 4.128854 18.705967 158 150 129
-1.615975 4.248158 18.696682 152 140 118
-1.699210 0.334413 19.950844 165 159 133
-1.712214 0.595250 19.889961 176 172 143
-1.701547 0.879928 19.759567 157 151 125
-1.666323 1.941574 19.449934 131 129 108
-1.663265 2.085208 19.452957 112 110 89
-1.664513 2.345359 19.419796 178 171 152
-1.618559 3.518222 19.034056 161 153 134
-1.618329 3.578010 18.983900 166 158 139
-1.614004 3.717838 18.836681 161 153 134
-1.615572 4.567391 18.750290 125 113 91
-1.728786 -0.914546 20.374147 121 119 98
-1.718844 -0.611026 20.364071 162 157 135
-1.707687 0.161310 20.114130 167 162 142
-1.663963 1.374204 19.665386 136 135 114
-1.637941 2.619094 19.394060 205 199 177
-1.639216 3.103964 19.295828 165 154 134
-1.610164 3.422658 19.128277 157 149 128
-1.585878 3.760813 18.835951 147 136 118
-1.591654 4.728233 18.818237 135 123 101
-1.700446 -0.489013 20.325083 173 175 154
-1.687758 0.594292 19.973185 176 169 141
-1.660689 0.664312 19.991570 168 162 138
-1.631042 1.533912 19.618444 158 157 136
-1.632967 1.807271 19.503918 188 187 166
-1.629718 2.223148 19.470425 176 170 148
-1.620625 2.417052 19.420500 152 146 124
-1.617272 2.849380 19.433588 175 167 144
-1.606135 3.591338 19.025873 168 160 141
-1.572801 4.625748 18.768391 124 112 90
-1.237630 -3.247006 14.724466 171 173 149
-1.688612 -0.802238 20.483870 193 189 164
-1.678943 0.079367 20.185852 162 160 139
-1.620970 1.713364 19.548082 111 110 89
-1.602035 3.012623 19.449154 150 138 116
-1.572797 3.704109 18.952707 144 136 117
-1.544908 3.907197 18.791910 140 129 111
-1.672122 -0.857890 20.523008 156 154 131
-1.673630 -0.660460 20.452682 191 187 162
-1.637545 0.348511 20.178930 140 134 112
-1.628735 0.904382 19.878014 171 167 142
-1.616109 1.191450 19.741638 176 176 152
-1.608340 1.272193 19.778318 194 193 172
-1.590283 1.910653 19.606445 183 182 161
-1.592546 2.350227 19.466766 169 163 141
-1.542668 4.082845 18.796789 147 139 120
-1.545897 4.241731 18.841270 142 135 109
-1.623464 0.241712 20.253733 178 176 153
-1.582855 2.099457 19.517616 180 179 158
-1.553686 2.826130 19.449692 164 158 136
-1.570704 3.274343 19.402145 164 157 138
-1.556371 3.390611 19.312382 160 153 134
-1.514680 4.483317 18.864941 123 111 89
-1.513220 4.531588 18.872097 112 100 78
-1.609435 -0.057108 20.280558 194 196 174
-1.616942 0.425195 20.233849 173 167 145
-1.614440 0.469312 20.209005 198 192 170
-1.599100 0.850580 19.994884 179 177 156
-1.581276 1.048479 19.847776 188 188 160
-1.582265 1.669774 19.675306 163 162 141
-1.557214 1.990642 19.543377 201 200 179
-1.554443 2.702774 19.456585 154 148 126
-1.516074 3.676116 19.233189 136 129 110
-1.500628 3.933584 18.846222 166 155 137
-1.622556 -0.753995 20.610638 139 133 107
-1.602785 -0.348783 20.461840 154 156 135
-1.609112 -0.256480 20.375751 138 140 119
-1.603437 0.007552 20.286825 136 135 114
-1.588276 0.228637 20.321161 143 141 118
-1.591364 0.749591 20.157459 150 149 129
-1.541739 1.885821 19.609192 133 132 111
-1.537438 2.612045 19.453146 152 146 124
-1.520949 3.639507 19.269629 153 146 127
-1.475483 4.739544 18.941633 132 120 98
-1.612529 -1.018554 20.694864 181 179 156
-1.503447 2.487943 19.494894 174 168 146
-1.504632 3.290799 19.511192 155 148 130
-1.495829 3.576054 19.315844 141 134 115
-1.496454 3.762277 19.182194 157 150 131
-1.582860 -0.792660 20.674124 154 150 125
-1.578473 -0.744438 20.639408 146 140 114
-1.559626 -0.109507 20.471010 179 181 159
-1.564119 0.288096 20.328583 166 164 143
-1.553706 0.508278 20.355175 153 156 137
-1.543169 0.846858 20.159439 175 174 154
-1.526048 1.394215 19.838659 200 199 178
-1.507774 1.629102 19.803059 129 128 107
-1.493287 2.840055 19.488394 162 157 137
-1.487342 3.602983 19.332638 162 157 137
-1.469121 3.878870 19.156881 162 155 136
-1.455542 4.032438 19.038385 160 153 134
-1.556197 -0.487069 20.640530 212 214 193
-1.502998 1.494556 19.824062 131 130 109
-1.490886 2.168955 19.562277 121 116 94
-1.489987 2.444936 19.522171 123 117 95
-1.486715 2.639829 19.510801 138 132 110
-1.476809 3.045700 19.519386 197 195 174
-1.435186 3.973691 19.010475 151 144 125
-1.447529 4.147265 19.027193 146 138 117
-1.431525 4.717861 18.965168 151 139 117
-1.533577 -0.242828 20.619173 200 202 181
-1.520684 0.006159 20.512394 144 143 122
-1.536960 0.140393 20.433445 164 159 139
-1.521666 0.714794 20.285913 211 213 192
-1.497971 1.236482 19.931198 116 115 94
-1.486079 1.268050 19.990498 142 141 120
-1.464941 1.739622 19.769844 168 167 146
-1.464186 2.256405 19.566738 148 142 120
-1.466881 2.704180 19.541193 196 190 168
-1.419122 4.536219 19.014393 148 136 114
-1.415183 4.867640 19.085510 151 139 117
-1.421944 4.942547 19.116228 152 140 114
-1.529691 -0.765820 20.759548 183 177 151
-1.531295 -0.516823 20.735128 160 162 141
-1.490904 0.956971 20.181747 152 154 132
-1.435626 3.184646 19.569254 156 151 132
-1.403665 4.573150 19.031326 147 135 113
-1.512096 -0.485812 20.737816 89 91 70
-1.501811 -0.363729 20.725573 176 178 157
-1.511797 -0.150411 20.636559 166 168 147
-1.479271 0.632130 20.379057 200 199 178
-1.478400 0.868871 20.306513 184 185 167
-1.423634 2.601660 19.641420 183 177 155
-1.433733 2.727076 19.564461 155 150 130
-1.490293 -0.806317 20.863111 172 168 143
-1.464224 0.717411 20.344145 191 190 169
-1.433588 1.447167 20.065964 193 192 171
-1.434374 1.559780 19.945116 208 207 186
-1.413111 1.870405 19.805357 189 188 167
-1.410671 2.137542 19.687340 196 195 174
-1.415857 2.926438 19.551039 146 143 124
-1.399905 3.413487 19.600685 141 138 121
-1.398438 3.655378 19.536457 139 137 116
-1.477072 -0.986341 20.890985 183 182 161
-1.490264 -0.906897 20.922504 166 164 141
-1.440923 0.210184 20.501209 168 163 144
-1.393275 2.025834 19.702732 155 154 133
-1.384801 3.159733 19.638224 168 165 146
-1.385329 3.518617 19.695160 154 151 134
-1.374531 3.796290 19.542854 151 149 128
-1.368929 4.026113 19.225134 140 135 115
-1.358113 4.155925 19.246067 150 142 123
-1.348964 4.538688 19.080563 177 165 143
-1.349563 4.979206 19.225241 147 135 109
-1.447398 -0.364752 20.829559 130 132 111
-1.415248 1.278126 20.187773 152 151 130
-1.381480 1.506458 20.066811 183 180 163
-1.377481 2.483377 19.792650 199 193 171
-1.379537 3.311384 19.712708 166 159 141
-1.334930 4.760372 19.106964 153 141 117
-1.451842 -1.019875 21.062422 204 201 182
-1.451020 -0.816839 20.966618 162 160 139
-1.441280 -0.711671 20.876831 166 165 144
-1.419493 -0.157504 20.770912 122 124 103
-1.416826 0.495921 20.494648 176 179 158
-1.415838 0.538630 20.507080 128 131 110
-1.377657 1.489856 20.075939 182 179 162
-1.354480 2.641702 19.801849 154 149 129
-1.352991 3.042028 19.665083 151 150 129
-1.329101 3.912889 19.427477 130 123 104
-1.323892 3.965833 19.392509 150 143 124
-1.416505 -0.268327 20.781334 152 154 133
-1.390826 0.388468 20.604815 149 148 130
-1.366693 1.183891 20.317068 227 226 205
-1.360764 1.680844 20.084240 166 165 144
-1.351477 2.337013 19.948767 181 176 156
-1.347455 2.452246 19.872097 190 186 161
-1.329409 2.820225 19.666672 164 161 142
-1.323361 3.862194 19.639956 163 156 138
-1.428298 -1.166458 21.368954 177 179 165
-1.385131 0.234673 20.582647 149 148 130
-1.340602 1.617332 20.160929 231 230 212
-1.339750 1.903163 20.005894 161 162 144
-1.342754 2.276931 19.981771 199 194 175
-1.314047 3.175038 19.813536 153 150 131
-1.294959 4.142288 19.438414 146 138 119
-1.296935 4.279289 19.368235 166 158 135
-1.389353 -0.808952 21.136633 155 154 133
-1.331001 1.423478 20.210285 184 183 165
-1.322884 1.495851 20.215162 153 152 134
-1.322779 1.527718 20.222021 177 176 158
-1.324268 1.685017 20.164053 190 192 171
-1.264652 4.845528 19.163652 157 145 119
-1.343293 -0.180063 20.893963 149 151 130
-1.332617 0.710654 20.565729 158 163 143
-1.319072 0.986565 20.476622 191 193 171
-1.270138 2.775486 19.741278 179 176 157
-1.275171 2.985065 19.777395 176 173 154
-1.284349 3.309264 19.874043 193 190 173
-1.284425 3.395267 19.907579 188 187 167
-1.257443 4.380396 19.378363 129 122 96
-1.332722 -0.212480 20.909018 139 141 120
-1.286029 2.116398 20.057213 188 185 166
-1.277169 2.289907 20.149405 191 188 169
-1.283770 2.343333 20.142916 171 169 148
-1.271250 2.671638 20.093740 145 143 122
-1.257821 2.845617 19.734890 176 173 154
-1.270029 3.277087 19.845209 196 193 176
-1.263601 3.675725 19.928339 211 210 190
-1.256304 3.999880 19.530289 150 143 124
-1.237267 4.492178 19.450485 168 160 137
-1.321610 -0.371160 21.084070 101 103 82
-1.300241 0.320290 20.761772 188 191 172
-1.296561 1.105809 20.506332 155 158 139
-1.232328 4.296418 19.537788 130 122 99
-1.325810 -1.319924 21.676380 222 232 224
-1.301427 -1.056697 21.336140 181 180 160
-1.282738 0.629986 20.764452 174 179 159
-1.276531 0.952086 20.673075 213 216 195
-1.229699 3.507863 19.926088 147 146 126
-1.234777 3.848133 19.939825 181 176 157
-1.216074 3.994698 19.687790 153 146 127
-1.214919 4.042580 19.689009 141 134 115
-1.201164 4.646643 19.602324 160 148 126
-1.188634 4.881115 19.283047 144 132 106
-1.309292 -1.133514 21.461174 208 209 193
-1.277109 -0.141508 21.062580 127 129 108
-1.279214 -0.032062 21.032310 210 211 193
-1.266055 0.430098 20.824383 185 188 169
-1.245557 1.403701 20.566120 219 220 202
-1.249885 1.780422 20.354242 177 180 161
-1.248282 1.828116 20.350510 171 174 155
-1.217481 1.939343 20.341063 193 196 179
-1.230950 2.000051 20.328262 165 168 151
-1.233788 2.071618 20.269344 157 158 140
-1.226548 2.178941 20.214590 164 163 143
-1.213064 2.806200 20.069639 163 160 141
-1.195272 3.972827 19.812635 126 119 100
-1.289067 -1.077383 21.387733 201 200 180
-1.275315 -0.707223 21.214167 154 156 135
-1.235412 1.276697 20.684919 173 176 157
-1.211837 2.561049 20.284143 187 187 161
-1.189567 2.952909 20.039064 197 194 175
-1.186942 4.115996 19.781879 125 118 99
-1.152046 4.967461 19.313364 193 181 155
-1.235210 -0.508938 21.272079 136 138 117
-1.226228 0.383133 20.958748 165 170 150
-1.223058 0.841065 20.853746 187 191 176
-1.192414 2.474382 20.332920 141 144 117
-1.178254 3.285111 19.992376 146 143 126
-1.134618 4.852884 19.336853 148 136 110
-1.226886 -0.981178 21.405827 196 199 180
-1.208718 0.682933 20.860668 199 204 184
-1.202948 1.025810 20.822334 231 236 216
-1.209339 1.158015 20.754131 199 203 186
-1.192558 1.633196 20.567080 169 172 153
-1.191567 1.660663 20.540260 190 193 174
-1.169437 2.056952 20.432186 163 167 150
-1.167904 2.827820 20.259741 131 130 110
-1.156974 3.037231 20.114691 164 161 142
-1.166088 3.199486 19.976744 158 155 136
-1.155389 3.492690 20.045561 138 137 117
-1.148455 3.962523 19.986685 161 154 135
-1.147878 4.721055 19.762722 158 146 124
-1.123589 4.780632 19.591280 153 141 115
-1.232328 -1.270652 21.718895 169 176 168
-1.212814 -0.550428 21.344301 202 204 183
-1.199666 -0.354181 21.287571 179 181 160
-1.203212 -0.125625 21.182440 192 194 173
-1.203063 -0.003507 21.132530 149 150 132
-1.209908 0.098490 21.139002 150 151 133
-1.196311 0.277832 21.054516 164 169 149
-1.174154 1.360806 20.797218 169 173 156
-1.158409 2.204170 20.337223 192 194 173
-1.157436 2.470520 20.381752 179 181 157
-1.161879 2.699258 20.395933 166 168 146
-1.126953 4.627126 19.832014 154 146 123
-1.206386 -1.227706 21.744917 191 197 183
-1.189924 -0.963711 21.448820 205 208 189
-1.186229 -0.253825 21.305161 169 171 150
-1.172000 0.222791 21.186140 176 181 161
-1.172884 0.349104 21.052666 206 211 191
-1.127902 3.032155 20.154091 183 180 161
-1.110707 3.150531 20.091459 126 124 103
-1.119908 3.999903 20.023855 157 150 131
-1.103632 4.345932 19.858509 183 175 154
-1.147545 0.570075 21.044247 197 202 182
-1.156919 0.761346 20.973322 207 212 192
-1.146009 1.305470 20.873528 118 125 109
-1.146035 1.517264 20.792740 149 152 133
-1.140980 1.581433 20.756676 197 200 181
-1.108039 3.290978 20.137360 180 177 160
-1.178435 -1.456425 21.875189 204 214 205
-1.150997 0.151606 21.247099 171 172 154
-1.128270 1.095050 21.000826 183 191 170
-1.099208 2.163597 20.543009 207 210 189
-1.082090 3.169282 20.212067 142 140 119
-1.074474 4.286908 19.940710 157 149 128
-1.056186 5.023272 19.470308 147 135 109
-1.123170 -0.134272 21.354666 173 174 156
-1.087870 1.828174 20.775797 240 243 226
-1.093849 2.139464 20.565187 208 211 192
-1.074602 2.780162 20.514492 175 172 155
-1.082128 2.847407 20.506994 173 167 151
-1.062163 3.643288 20.177183 133 132 114
-1.111088 -0.704448 21.436811 156 152 125
-1.091703 1.099733 21.014360 191 194 175
-1.054286 2.963156 20.483107 162 156 140
-1.055962 3.325819 20.206722 166 163 146
-1.052681 3.460284 20.149643 126 125 107
-1.035594 4.446165 19.925133 147 139 116
-1.033962 4.473621 19.928530 168 160 137
-1.105504 -1.151875 21.738811 206 207 189
-1.090025 -0.479630 21.405602 149 150 132
-1.079743 0.053306 21.330666 163 166 147
-1.096253 0.087242 21.310604 194 197 178
-1.074292 0.393509 21.252588 174 177 158
-1.079751 1.025787 21.092756 181 184 165
-1.035622 2.297718 20.517963 216 217 199
-1.021939 3.594537 20.218578 185 184 166
-1.027172 4.080650 20.223116 151 144 126
-1.014157 4.826067 19.888206 152 144 123
-1.095485 -1.617668 22.007694 164 170 158
-1.092560 -1.334854 21.868631 216 219 208
-1.080956 -1.084382 21.703058 169 168 147
-1.070098 -0.637084 21.459869 160 158 133
-1.056330 -0.261725 21.395945 180 181 163
-1.044192 1.400157 21.004570 153 156 137
-1.020003 2.607579 20.528620 206 205 184
-1.017922 3.096086 20.393177 136 135 114
-0.988759 4.614041 19.988073 154 149 130
-1.069154 -1.198164 21.800512 227 230 211
-1.057084 -1.011806 21.679626 156 155 134
-1.061360 -0.797173 21.513620 117 111 85
-1.036294 0.215856 21.344601 163 166 147
-1.029839 0.620411 21.242079 189 192 173
-1.011898 2.196206 20.731461 196 199 178
-1.014003 2.429347 20.541935 146 148 127
-0.989429 3.776784 20.326149 215 214 194
-0.987442 3.916130 20.266382 168 163 144
-0.958162 4.867332 19.818499 145 137 114
-1.067571 -1.819597 22.151480 197 204 188
-1.060246 -1.777191 22.107691 211 218 202
-1.016574 -0.198732 21.433167 222 223 205
-1.011728 1.116650 21.118155 133 136 117
-0.992240 1.910174 20.883438 156 159 140
-0.951379 4.430250 20.008579 158 152 130
-0.956675 4.858672 19.855394 149 141 118
-0.989867 0.066104 21.397764 173 176 157
-0.992487 0.259341 21.345629 179 182 163
-0.986790 0.566276 21.273890 171 174 155
-1.002977 0.674980 21.233294 176 179 160
-0.998178 0.928430 21.200117 195 198 179
-0.992878 1.259352 21.062969 194 197 178
-0.980690 1.485579 21.031614 182 185 166
-0.984792 1.830988 20.925615 178 181 162
-0.970588 2.785529 20.587547 236 230 214
-0.940991 4.216488 20.308184 164 157 139
-0.928239 4.654030 20.039179 163 160 143
-1.051490 -2.460031 22.607748 104 107 96
-0.999782 -0.734743 21.536625 176 172 145
-0.985424 0.355249 21.332771 89 92 73
-0.961248 1.557531 21.014690 201 204 185
-0.965241 1.909905 20.929607 157 160 141
-0.956352 2.105208 20.810257 183 186 169
-0.949475 2.166301 20.859188 164 167 148
-0.942554 3.238109 20.475681 153 151 130
-0.931891 3.447189 20.311287 134 133 115
-0.933109 4.123065 20.386908 197 190 172
-0.903782 4.554556 20.080193 172 169 150
-0.902388 5.020854 19.746279 163 153 126
-0.978455 -0.871122 21.629520 193 189 162
-0.962661 -0.261315 21.447395 209 210 192
-0.976429 0.254291 21.367580 158 161 142
-0.944861 1.643795 20.974817 207 210 191
-0.941107 2.010014 20.906967 143 145 131
-0.924868 2.629665 20.638672 95 94 73
-0.913831 2.685764 20.674782 110 108 87
-0.926261 2.740361 20.634878 200 195 176
-0.931150 2.997387 20.637707 167 162 143
-0.914697 4.028754 20.360928 161 154 136
-0.903682 4.466989 20.047441 139 134 114
-0.889014 4.678921 20.073788 186 185 167
-0.907340 4.756831 20.045713 164 163 145
-0.896117 5.049984 19.749430 156 146 121
-0.989236 -2.590645 22.638880 151 155 140
-0.984830 -1.713035 22.109644 163 170 154
-0.952100 -1.037972 21.786224 202 202 178
-0.941571 -0.481391 21.488075 108 109 91
-0.940454 -0.059791 21.477150 225 228 209
-0.934157 0.535783 21.327021 185 188 169
-0.935864 0.783794 21.263374 156 159 140
-0.908693 2.537003 20.624338 146 148 126
-0.902783 3.180405 20.618382 211 209 186
-0.891509 4.217047 20.368801 155 148 130
-0.955063 -1.588826 22.031443 218 225 207
-0.937953 -1.100591 21.777466 136 136 110
-0.909498 1.386146 21.101439 156 159 140
-0.896679 2.125484 20.892689 128 131 112
-0.895486 2.257457 20.867002 147 150 129
-0.874683 3.344116 20.518671 165 162 143
-0.871855 3.497569 20.364967 197 196 178
-0.864553 3.611067 20.391218 150 149 131
-0.948592 -2.981665 22.583601 191 195 181
-0.960417 -2.365746 22.596317 181 188 172
-0.924815 -1.447928 21.951715 138 145 127
-0.916008 -1.159375 21.850548 150 152 128
-0.895250 0.261213 21.431517 171 174 155
-0.884835 0.741593 21.315172 185 188 169
-0.891231 1.308771 21.149094 210 213 194
-0.874048 1.764052 21.047632 132 135 116
-0.875510 2.361383 20.657583 222 223 205
-0.866772 2.709985 20.715462 142 139 120
-0.867601 2.806962 20.727461 153 147 131
-0.853883 3.404723 20.489300 136 133 116
-0.842677 4.581382 20.145914 177 178 162
-0.839148 4.841887 20.087584 154 153 132
-0.931433 -2.818855 22.735632 212 216 199
-0.898861 -1.849953 22.228638 189 196 180
-0.899143 -1.381929 21.972908 152 159 143
-0.885433 -0.779784 21.654617 186 181 151
-0.875735 0.444728 21.389187 138 141 122
-0.866282 1.082958 21.255520 174 177 158
-0.858117 1.893252 21.072311 133 136 117
-0.859240 2.541325 20.695032 202 204 182
-0.838254 3.125911 20.730127 113 112 91
-0.841655 3.276478 20.632948 190 188 167
-0.835048 3.624684 20.408932 152 151 133
-0.834372 4.217232 20.470701 168 161 143
-0.818971 4.410432 20.219587 159 156 137
-0.813374 4.742115 20.124571 162 163 147
-0.897109 -2.011841 22.286634 174 181 165
-0.875159 -1.571785 22.068977 180 187 169
-0.864959 -1.012391 21.857113 197 197 169
-0.851381 -0.310872 21.538956 167 168 150
-0.857974 0.074563 21.506329 197 200 181
-0.855043 0.785585 21.289682 205 208 189
-0.854290 0.856906 21.284367 119 122 103
-0.833059 2.023896 21.098368 212 215 196
-0.820256 3.446636 20.459171 149 148 130
-0.873708 -2.849877 22.760202 202 206 191
-0.868783 -1.712680 22.141954 195 202 184
-0.861652 -0.963686 21.812126 149 148 120
-0.822858 0.374227 21.426392 172 175 156
-0.837030 0.565264 21.334618 137 140 121
-0.827355 0.979463 21.301929 209 212 193
-0.812231 1.642641 21.145123 181 184 165
-0.793266 2.610926 20.849834 155 155 131
-0.807170 2.660499 20.838947 187 186 165
-0.798398 4.455710 20.372036 143 140 121
-0.783170 4.655878 20.192757 165 166 152
-0.804024 0.211257 21.482525 170 173 154
-0.813684 1.021831 21.256290 162 165 146
-0.796522 1.145688 21.260153 202 205 186
-0.805140 1.238981 21.246754 151 154 135
-0.798315 2.454371 20.912880 191 193 172
-0.791291 2.897958 20.855555 154 147 131
-0.781506 3.066688 20.844215 155 152 133
-0.777526 3.934484 20.498352 191 186 167
-0.780866 4.041008 20.520073 160 153 135
-0.769990 4.373397 20.573999 153 150 131
-0.766059 5.143054 20.159756 223 216 190
-0.831902 -1.317134 22.008255 162 166 149
-0.796358 -0.610374 21.633213 134 136 115
-0.798973 -0.385427 21.546589 200 203 186
-0.800981 0.358295 21.448454 229 233 218
-0.793300 1.997519 21.156485 190 193 174
-0.786980 2.268400 21.191053 166 164 143
-0.772919 3.009483 20.879202 143 138 119
-0.773152 3.270850 20.762093 162 159 140
-0.752860 3.732868 20.527636 192 191 171
-0.752763 4.197030 20.671028 145 138 120
-0.732113 4.794280 20.230738 148 145 126
-0.815180 -3.090616 22.829752 219 223 209
-0.819003 -2.648422 22.669495 224 228 214
-0.801720 -2.069761 22.422720 205 209 192
-0.793625 -1.208843 21.970743 229 232 213
-0.793044 -1.100212 21.916481 191 195 172
-0.767073 -0.146630 21.555180 146 150 133
-0.763300 0.625967 21.396364 167 171 154
-0.740779 1.827510 21.172110 188 189 171
-0.762196 3.218794 20.815466 172 169 150
-0.741070 3.640401 20.526958 185 184 164
-0.716755 4.991585 20.248787 118 111 92
-0.785782 -2.212656 22.512585 206 210 193
-0.782328 -1.810004 22.250347 194 198 181
-0.746954 1.444245 21.258024 153 156 137
-0.740743 2.374337 21.259903 186 181 162
-0.711225 4.761699 20.255434 183 180 161
-0.772161 -2.296095 22.592575 203 207 190
-0.751748 -1.401794 22.033510 135 139 122
-0.740817 0.061468 21.520090 212 216 201
-0.720473 0.787780 21.384270 180 184 167
-0.719600 1.488198 21.252266 129 132 113
-0.727256 2.261537 21.259548 126 124 103
-0.719353 2.411038 21.237391 153 148 129
-0.705437 4.451885 20.653280 159 156 137
-0.695493 4.524355 20.683577 112 109 90
-0.709991 -0.516192 21.647030 164 168 151
-0.697805 0.910751 21.358500 167 171 154
-0.706612 1.230429 21.320827 125 126 108
-0.688560 3.272603 20.885706 161 160 140
-0.689247 3.391443 20.794840 173 172 152
-0.692418 3.422678 20.765823 138 137 117
-0.683242 3.872254 20.639154 114 111 92
-0.687953 4.036143 20.661551 177 170 152
-0.678113 4.144032 20.742889 144 137 119
-0.682003 4.587368 20.525318 142 137 118
-0.673140 4.892471 20.274303 193 186 167
-0.702177 -1.685718 22.223108 198 202 185
-0.683845 -0.346444 21.586613 172 176 159
-0.688852 -0.157855 21.554354 122 126 109
-0.691630 0.140545 21.514721 152 156 141
-0.688750 0.416135 21.512197 198 202 187
-0.690993 0.517088 21.454350 177 181 164
-0.687347 1.165472 21.307501 162 163 145
-0.675633 2.022594 21.340631 179 180 162
-0.689274 2.131827 21.283968 190 191 173
-0.674140 2.370923 21.364853 109 104 84
-0.672484 2.764358 21.074213 169 166 147
-0.673152 3.104213 20.979631 178 175 156
-0.665874 3.519387 20.709648 181 180 160
-0.652235 3.680727 20.755787 164 163 143
-0.666473 4.427454 20.728325 139 134 115
-0.644789 5.257472 20.329992 144 133 113
-0.678811 -1.024156 21.953444 191 193 172
-0.671059 0.696062 21.403999 157 161 144
-0.659247 0.969885 21.341291 163 166 149
-0.661717 1.094196 21.349085 110 108 93
-0.659107 1.650520 21.310034 168 171 152
-0.657358 1.736332 21.327469 212 215 196
-0.657421 1.837268 21.281351 105 106 88
-0.659339 2.543870 21.279514 143 145 124
-0.645235 2.678480 21.229332 190 187 168
-0.643083 0.806897 21.357681 161 165 148
-0.625839 1.170121 21.328676 133 134 116
-0.648976 1.300515 21.334515 164 165 147
-0.622604 2.962081 21.131514 144 142 119
-0.614785 3.810435 20.826330 163 162 142
-0.616407 4.813816 20.333300 161 156 136
-0.658647 -2.525987 22.770247 202 206 189
-0.651929 -2.089165 22.499292 139 143 126
-0.621495 -0.382924 21.630409 171 175 158
-0.632545 0.009238 21.540760 174 178 163
-0.632461 2.470898 21.396303 163 160 141
-0.606807 3.417156 20.903948 173 175 154
-0.587400 4.672829 20.625498 185 179 157
-0.622021 -1.942219 22.428566 164 168 151
-0.629418 -1.590248 22.196821 194 198 181
-0.633440 -0.938559 21.944172 168 170 149
-0.609163 -0.202042 21.586607 201 205 188
-0.603892 -0.073931 21.559277 113 117 102
-0.604366 2.149878 21.375988 150 151 133
-0.595298 2.671838 21.348537 158 157 137
-0.606828 -2.650989 22.897593 201 206 186
-0.585811 -1.484727 22.160236 196 200 183
-0.585324 -1.304077 22.065308 141 144 127
-0.599765 -1.061358 21.974159 160 163 142
-0.583740 0.250214 21.573513 226 230 215
-0.588867 1.091440 21.373713 157 155 140
-0.573451 2.893539 21.323465 195 197 176
-0.563293 4.093333 20.988123 211 204 186
-0.565963 4.180938 20.951628 149 142 124
-0.562527 5.050361 20.445204 186 179 160
-0.664273 -5.347140 26.122700 159 156 137
-0.607131 -3.314729 23.375040 205 209 194
-0.604987 -2.930807 23.190521 199 203 186
-0.597182 -2.606888 22.842411 171 176 156
-0.590519 -2.214125 22.614008 200 204 187
-0.593497 -1.835652 22.364941 163 167 150
-0.566754 -1.172785 22.021654 185 188 167
-0.555673 1.910511 21.409195 191 192 174
-0.545788 1.993987 21.431337 189 190 172
-0.567540 2.088408 21.425356 157 158 140
-0.560575 3.210384 21.227316 184 185 167
-0.544606 3.713255 21.001041 108 107 87
-0.545654 3.808777 20.969353 187 186 166
-0.543252 4.549245 20.984747 150 144 122
-0.556680 -2.375930 22.745796 147 151 134
-0.545133 -1.016451 21.977465 152 155 136
-0.539372 -0.959260 21.957588 193 196 177
-0.540649 -0.609829 21.775990 188 191 172
-0.548554 -0.352351 21.680882 190 194 177
-0.541165 -0.165514 21.632887 160 164 147
-0.553706 -0.064785 21.637844 133 137 122
-0.537905 0.751726 21.434015 176 180 163
-0.539519 1.303272 21.397518 139 140 122
-0.542279 3.423918 21.156038 197 200 179
-0.519325 3.857671 21.064795 158 157 137
-0.525807 3.954238 21.029030 187 184 165
-0.523180 4.291833 21.002666 143 136 118
-0.495800 5.216808 20.507627 179 172 153
-0.641068 -5.317067 26.341543 168 167 149
-0.553304 -2.515453 22.854357 181 186 166
-0.554267 -2.302309 22.696520 204 208 191
-0.524801 -1.283057 22.090002 174 177 160
-0.536802 -0.821540 21.874975 204 207 188
-0.525509 0.285213 21.568933 178 182 167
-0.521388 0.947623 21.356304 185 188 171
-0.517769 2.335795 21.431219 139 134 112
-0.504844 3.135808 21.351696 204 206 185
-0.508353 3.538620 21.208176 117 120 99
-0.495099 4.255289 21.016413 193 186 168
-0.535503 -2.760811 23.110058 167 172 152
-0.514009 -1.996794 22.527897 193 197 180
-0.526421 -1.950476 22.452330 155 159 142
-0.524019 -1.877324 22.400942 199 203 186
-0.511549 -1.785057 22.396385 184 188 171
-0.502168 -0.440391 21.722372 184 191 175
-0.489736 1.852429 21.473995 129 130 112
-0.498411 2.242080 21.431883 148 145 126
-0.492027 2.688860 21.445723 134 136 115
-0.481236 4.429562 21.045382 177 170 152
-0.567035 -5.531041 26.090517 162 154 135
-0.486609 -1.349926 22.121656 213 216 199
-0.477278 -1.137950 22.022619 160 163 144
-0.480067 0.193652 21.598066 203 209 195
-0.484981 0.517937 21.550600 166 173 157
-0.466750 1.467701 21.566578 96 99 80
-0.465956 1.667579 21.557837 199 202 183
-0.465628 2.909348 21.488831 153 155 134
-0.463564 3.328961 21.467216 155 158 137
-0.460138 3.478774 21.445805 184 187 166
-0.462315 3.845809 21.081596 172 171 151
-0.454862 4.815693 20.567638 161 153 130
-0.447680 5.340312 20.569099 168 163 144
-0.505590 -3.851035 24.097773 176 182 168
-0.488879 -2.417179 22.795721 156 161 141
-0.456060 -1.522428 22.222300 185 189 175
-0.465687 -0.289898 21.700800 183 189 175
-0.454344 -0.044973 21.622967 178 184 172
-0.454161 0.364031 21.614065 181 189 176
-0.436619 1.570592 21.570478 131 132 114
-0.453003 2.472269 21.462877 197 196 176
-0.450268 2.870015 21.498810 145 146 128
-0.446821 3.734321 21.209803 145 142 123
-0.448945 4.012381 21.105074 147 144 125
-0.438020 5.072865 20.580078 191 180 160
-0.519536 -5.281404 26.356361 148 150 128
-0.483644 -4.089440 24.413286 220 218 203
-0.478183 -3.333918 23.478701 200 207 191
-0.460160 -2.098212 22.606577 211 216 196
-0.446006 -1.141711 22.029417 145 149 134
-0.426669 -0.534101 21.784576 195 202 186
-0.438092 0.578244 21.548109 207 215 204
-0.432238 0.933094 21.388481 202 205 194
-0.434904 1.104933 21.479385 172 173 159
-0.434522 1.206717 21.478138 149 153 136
-0.431612 2.998981 21.501656 153 154 136
-0.419646 3.879372 21.221096 157 154 135
-0.421661 4.111489 21.164440 163 160 141
-0.428250 4.502079 21.051416 165 163 140
-0.411855 5.208942 20.607977 138 127 107
-0.494944 -5.462329 26.063854 176 171 152
-0.453646 -3.512919 23.611731 202 209 193
-0.448523 -2.986884 23.355587 151 156 136
-0.439926 -2.572276 22.999132 225 228 209
-0.408605 -0.723797 21.858347 192 199 183
-0.413695 1.959544 21.524309 161 162 144
-0.407379 2.029049 21.489214 155 156 138
-0.408809 2.712755 21.487354 133 134 116
-0.414689 3.417691 21.553078 174 175 157
-0.393727 4.617218 21.117294 120 115 93
-0.391134 4.835934 20.662764 180 169 149
-0.476036 -5.710991 26.172445 147 134 115
-0.434824 -4.176735 24.488453 166 167 151
-0.403550 -1.732685 22.376617 190 194 177
-0.398266 -1.634456 22.274431 182 186 169
-0.407318 -1.155461 22.055128 228 232 217
-0.381633 0.309574 21.688763 179 189 178
-0.377661 1.859725 21.562866 119 120 102
-0.383339 2.159880 21.494267 142 144 123
-0.384801 3.658068 21.439236 146 143 124
-0.373022 4.195943 21.251469 161 156 137
-0.379592 4.752430 21.044455 140 132 111
-0.376749 4.823350 20.877958 176 165 145
-0.377556 4.979239 20.664335 177 166 146
-0.372688 5.095422 20.674881 141 130 110
-0.376752 5.349546 20.765896 154 146 127
-0.382313 -2.372876 22.799137 177 182 162
-0.388731 -0.904164 21.967701 182 186 171
-0.362673 -0.316705 21.762215 176 182 168
-0.367445 0.005517 21.701792 182 190 179
-0.363645 0.123672 21.715849 193 204 196
-0.379775 0.402784 21.646130 208 218 207
-0.376422 1.637486 21.625891 109 110 92
-0.361511 2.625591 21.587725 172 175 158
-0.368478 2.855972 21.535082 181 182 164
-0.362029 3.579085 21.565947 192 194 172
-0.370620 3.764258 21.402456 153 150 131
-0.419608 -5.733003 26.180676 149 136 117
-0.426574 -5.040173 26.235041 119 118 97
-0.354610 -1.866066 22.450417 197 201 184
-0.362453 -1.798694 22.381050 195 199 182
-0.354456 -1.291776 22.152569 199 203 188
-0.358903 -0.799416 21.917313 208 211 194
-0.357704 1.483332 21.633883 104 105 87
-0.342255 3.895387 21.411890 132 129 110
-0.343254 4.459958 21.170040 136 132 107
-0.332686 5.434557 20.878933 198 190 171
-0.380571 -5.354346 26.081993 176 175 154
-0.357309 -3.489546 23.683378 195 202 186
-0.354586 -2.806555 23.232286 166 169 150
-0.348590 -2.577499 23.010468 222 225 206
-0.345113 -1.983288 22.504513 193 197 180
-0.331344 -0.961333 22.021627 207 215 202
-0.331759 1.095728 21.614113 163 167 152
-0.331825 1.415263 21.646229 168 167 146
-0.323605 1.705459 21.647861 126 127 109
-0.333386 2.054946 21.543783 190 191 173
-0.320020 2.081183 21.572565 154 156 135
-0.319810 2.424028 21.602224 118 116 95
-0.313278 4.374232 21.267838 185 180 158
-0.318044 4.568430 21.185452 143 138 116
-0.322128 5.037249 20.900023 178 167 145
-0.353519 -4.920475 25.831837 94 93 73
-0.357561 -4.185838 24.500261 202 204 190
-0.325388 -3.311450 23.652939 200 207 191
-0.322913 -3.140897 23.509481 224 228 211
-0.330655 -2.208613 22.668953 198 203 183
-0.327247 -1.864852 22.441717 214 218 201
-0.311251 -1.637889 22.297071 211 215 198
-0.304794 -0.641111 21.852417 211 218 202
-0.308777 -0.171674 21.830772 198 204 190
-0.300222 0.195866 21.778505 200 213 204
-0.307989 1.606112 21.652491 137 138 120
-0.308545 1.756493 21.625246 123 124 106
-0.301464 3.393344 21.730612 113 114 96
-0.296446 4.307378 21.345755 164 159 140
-0.300918 4.949153 21.070606 123 112 92
-0.325276 -4.420423 25.007296 129 131 118
-0.306560 -2.475643 22.880690 183 186 167
-0.298131 -1.517430 22.236622 230 234 220
-0.277413 0.026870 21.877144 140 150 139
-0.274116 0.462893 21.742056 169 182 173
-0.271294 1.994526 21.627800 140 141 123
-0.282091 2.539438 21.710180 140 141 123
-0.287407 2.778063 21.680899 140 141 123
-0.290478 2.942904 21.684050 188 189 171
-0.275562 3.237199 21.754520 180 181 163
-0.279995 3.788597 21.565905 161 159 136
-0.267078 4.769845 21.274260 170 162 141
-0.265790 5.243512 20.926874 166 156 131
-0.319219 -5.092044 25.941696 159 157 136
-0.290278 -3.139845 23.521948 190 194 177
-0.267520 -1.354479 22.167896 230 238 225
-0.257701 -0.442618 21.867409 204 211 195
-0.260210 0.566464 21.675480 168 179 171
-0.261089 0.660042 21.645945 169 179 170
-0.264857 0.801190 21.647486 188 194 182
-0.270069 1.249285 21.673122 156 160 143
-0.269250 1.915019 21.628649 145 146 128
-0.265933 2.205794 21.635784 140 139 119
-0.266878 2.372574 21.673372 180 175 156
-0.262468 2.879087 21.718575 166 167 149
-0.270390 3.083804 21.752045 149 150 132
-0.261010 3.426794 21.756466 180 181 163
-0.260753 4.056009 21.531063 163 160 141
-0.260111 4.701260 21.239923 188 182 160
-0.258424 5.399228 20.900055 172 164 141
-0.285042 -6.014671 26.031061 150 138 116
-0.291623 -5.556623 26.109095 187 178 161
-0.285321 -5.384011 26.075472 130 128 107
-0.265868 -3.763787 24.110157 198 204 190
-0.258706 -3.622744 23.820742 204 210 196
-0.278905 -3.548333 23.755175 197 204 188
-0.264378 -2.817614 23.257092 178 181 162
-0.226745 -0.748968 21.910423 178 185 169
-0.248460 -0.322057 21.840906 153 159 145
-0.241851 0.229094 21.814381 182 197 190
-0.232041 0.376446 21.817465 228 243 236
-0.243058 2.459789 21.723204 159 158 138
-0.244735 2.702242 21.761551 191 193 179
-0.222124 5.278047 20.974262 172 162 137
-0.233297 5.354849 20.982979 158 148 123
-0.265518 -5.424585 26.058514 148 143 123
-0.266126 -5.292814 26.046167 125 123 102
-0.255259 -4.536366 25.341393 154 156 143
-0.216710 -1.429812 22.224611 195 198 187
-0.219935 -1.072185 22.147825 154 166 156
-0.211614 -0.530445 21.879032 234 241 225
-0.222033 -0.245985 21.863419 174 180 166
-0.223357 -0.007971 21.884251 189 201 189
-0.224844 0.674106 21.662516 211 221 212
-0.212292 3.149275 21.816133 158 159 141
-0.201144 4.825496 21.398705 172 164 143
-0.206237 4.983683 21.354628 154 143 123
-0.203034 -2.125081 22.650053 188 193 173
-0.201850 -2.029056 22.571365 220 224 207
-0.200161 -1.400540 22.205288 161 169 158
-0.183483 -0.772880 21.973316 194 200 186
-0.193329 -0.581255 21.893076 212 219 203
-0.206012 0.883921 21.757582 182 194 182
-0.208483 1.068764 21.781601 154 161 145
-0.190772 1.626120 21.717783 204 205 187
-0.198848 2.161136 21.730885 172 174 153
-0.189881 2.278508 21.795267 158 155 136
-0.186953 2.786952 21.770077 172 173 155
-0.188090 3.373314 21.851788 129 130 112
-0.200677 3.702605 21.727186 208 206 181
-0.194447 3.906727 21.606394 156 154 129
-0.191810 4.586701 21.416113 158 156 133
-0.220603 -4.219349 24.665028 207 210 199
-0.205026 -2.976980 23.454189 179 183 168
-0.184264 -2.390223 22.827305 184 189 169
-0.168795 -2.180915 22.679523 179 184 164
-0.171852 -1.181784 22.204321 181 191 180
-0.178883 -0.934196 22.071518 193 203 192
-0.176588 0.112561 21.915041 194 210 200
-0.174841 0.740431 21.711636 182 192 183
-0.178207 3.504891 21.787857 162 164 143
-0.175933 4.500239 21.526081 170 170 144
-0.173257 4.852783 21.493216 191 183 162
-0.191489 -5.209407 25.998404 169 164 144
-0.175370 -4.139736 24.614346 167 173 161
-0.167837 -3.493119 23.691471 210 217 201
-0.157091 -3.149852 23.524509 180 184 170
-0.166300 -2.656978 23.119852 154 157 138
-0.150179 -1.722192 22.409891 207 211 194
-0.165780 -1.288153 22.198370 189 199 188
-0.152002 -0.426238 21.897827 137 143 129
-0.158026 1.010451 21.808907 176 184 169
-0.159897 1.437773 21.739735 100 99 78
-0.154009 2.801163 21.849182 138 139 121
-0.149625 2.972517 21.844225 117 118 100
-0.144899 3.079107 21.843687 120 121 103
-0.147251 3.220065 21.866983 175 176 158
-0.152143 3.802606 21.707949 158 156 131
-0.152812 -5.865891 26.178692 112 100 78
-0.156101 -4.691258 25.567413 191 192 176
-0.152828 -4.124216 24.620605 192 198 184
-0.138147 -3.345286 23.681671 226 233 217
-0.141747 -2.388891 22.806162 230 235 215
-0.131417 -1.867004 22.485115 236 240 223
-0.140824 -0.749805 21.993364 214 222 207
-0.129184 0.205123 21.897699 219 232 223
-0.133768 2.099762 21.764591 157 159 138
-0.134289 2.216459 21.805796 190 192 171
-0.130791 2.395757 21.885374 141 136 117
-0.142796 3.133485 21.857716 162 163 145
-0.128974 3.319124 21.893820 169 170 152
-0.129671 3.596678 21.839029 147 149 127
-0.131627 3.689991 21.801163 179 179 155
-0.138686 4.230530 21.634371 132 129 110
-0.134349 -4.882834 25.687901 158 159 141
-0.124072 -2.024685 22.587481 192 196 182
-0.118649 -1.757215 22.414558 185 191 177
-0.120810 -1.719064 22.402922 190 196 184
-0.117472 -1.607708 22.346136 177 183 171
-0.128487 -1.284425 22.252403 166 176 165
-0.117457 -0.676091 21.912674 209 221 207
-0.106278 -0.422807 21.918413 222 235 225
-0.116285 0.612008 21.746988 221 231 223
-0.112398 0.860366 21.779238 174 184 173
-0.119968 1.316835 21.789326 119 123 106
-0.107323 3.411976 21.909801 104 107 88
-0.106035 3.498334 21.889362 125 128 109
