ply
format ascii 1.0
element vertex 1206
property float x
property float y
property float z
property uchar red
property uchar green
property uchar blue
end_header
-2.132160 -2.650065 10.007735 255 252 247
-2.055221 -2.125909 9.633284 244 239 233
-1.928777 -1.245504 9.038568 113 105 65
-1.936085 -1.117970 9.066786 37 29 22
-1.929228 -0.924893 9.034986 235 215 172
-1.904602 -0.534604 8.907532 141 117 81
-1.897415 -0.436408 8.887736 184 163 132
-1.496510 0.098283 6.994462 103 105 32
-1.425256 0.366718 6.666212 189 180 110
-1.409925 0.473531 6.591345 144 130 86
-1.385832 0.503406 6.488468 58 56 32
-1.386183 0.550492 6.490513 122 110 67
-1.332621 0.768176 6.247133 199 174 144
-2.116089 -3.546878 9.973295 246 245 240
-2.150613 -2.428765 10.119419 253 248 244
-2.028383 -1.980861 9.551377 193 175 135
-1.917379 -1.265415 9.011333 41 16 2
-1.933010 -1.133313 9.071995 32 29 20
-1.926914 -0.859908 9.036877 89 67 42
-1.922701 -0.719067 9.034340 68 53 34
-1.923093 -0.712519 9.033667 190 175 133
-1.901794 -0.543734 8.914147 183 158 122
-1.419849 0.241572 6.666550 61 63 15
-1.422613 0.281240 6.671554 132 154 65
-1.421173 0.286522 6.671679 130 152 82
-1.384874 0.601937 6.498049 80 69 21
-2.118457 -3.381984 10.017413 247 244 239
-2.120017 -2.310052 10.002891 249 244 238
-1.895324 -1.610657 8.940420 107 64 19
-1.899155 -1.571893 8.949646 97 83 46
-1.912530 -1.473835 9.011516 114 106 83
-1.909871 -1.315598 8.996846 158 157 105
-1.920603 -1.204732 9.045823 32 27 27
-1.925600 -1.092816 9.063608 226 203 176
-1.923300 -1.024358 9.061644 173 150 111
-1.886461 -0.436251 8.872910 151 130 95
-1.878231 -0.390041 8.836912 132 117 85
-1.488134 0.107247 7.006670 110 116 42
-1.418474 0.324093 6.664004 31 34 14
-1.407026 0.409140 6.613771 119 128 55
-1.409952 0.446579 6.629630 142 138 86
-1.379648 0.670527 6.496115 46 66 8
-2.117779 -3.305536 10.034755 250 246 243
-2.114284 -3.245367 10.016840 247 243 240
-1.928955 -1.169631 9.120486 31 26 20
-1.930393 -1.158944 9.112796 32 28 19
-1.917419 -0.983926 9.051516 149 127 87
-1.914011 -0.822287 9.037820 171 153 107
-1.913390 -0.805607 9.033151 197 183 134
-1.890288 -0.546970 8.912782 202 178 135
-1.869048 -0.300297 8.830345 57 85 129
-1.487509 0.080482 7.026612 90 97 15
-1.415821 0.230967 6.670146 172 171 61
-1.416193 0.265215 6.672909 143 155 81
-1.413934 0.350876 6.675398 48 44 0
-1.377954 0.578743 6.499972 49 56 12
-2.110205 -3.523890 10.027232 247 246 241
-2.112135 -2.276893 10.006253 250 245 239
-2.036526 -2.155694 9.662300 250 245 239
-2.017839 -2.006650 9.580315 134 117 81
-1.908844 -1.184612 9.043488 29 25 22
-1.908239 -0.725681 9.033521 69 59 37
-1.903065 -0.690542 9.018312 184 175 136
-1.905354 -0.649408 9.012689 154 143 106
-1.866105 -0.276880 8.823690 50 84 123
-1.409419 0.382964 6.674320 102 90 48
-1.400373 0.455300 6.620059 158 139 105
-1.374299 0.549588 6.501005 115 104 55
-1.375727 0.606640 6.500715 100 102 29
-1.327652 0.762361 6.263532 179 154 123
-2.113811 -2.438087 10.048153 249 244 240
-2.012946 -1.995109 9.573315 161 143 107
-1.886155 -1.642780 8.976470 147 131 78
-1.884530 -1.578294 8.944596 149 137 65
-1.903417 -0.880639 9.049317 173 148 109
-1.904398 -0.799654 9.033889 104 94 60
-1.859124 -0.250463 8.826504 153 160 165
-1.485519 0.052714 7.052463 111 116 49
-1.410184 0.284982 6.677840 74 87 22
-1.401141 0.409195 6.639852 39 45 0
-1.393068 0.472318 6.604709 122 119 59
-1.371421 0.704045 6.498050 164 160 104
-2.101855 -2.297066 10.030114 248 243 237
-2.002301 -1.905102 9.543938 81 77 30
-1.908058 -1.708486 9.099277 99 93 29
-1.898760 -1.677848 9.057645 165 157 87
-1.881451 -1.507272 8.977723 59 64 40
-1.902359 -0.849768 9.050094 203 197 161
-1.864281 -0.511961 8.865233 105 81 41
-1.859501 -0.350043 8.837301 150 138 127
-1.471129 0.097495 6.998637 91 89 40
-1.440800 0.155526 6.846219 72 74 32
-1.401676 0.221591 6.675521 163 179 61
-1.404658 0.242096 6.672900 167 173 79
-1.400411 0.415970 6.653357 58 67 16
-1.367421 0.638902 6.503591 92 102 51
-1.368956 0.747993 6.510528 219 197 161
-2.021224 -2.151309 9.664701 253 248 242
-1.984496 -1.861626 9.475142 164 144 97
-1.886633 -0.674236 9.006520 176 167 138
-1.481092 -0.002810 7.058295 169 172 84
-1.398009 0.213304 6.677352 89 102 20
-1.388388 0.440870 6.626125 114 118 82
-2.084413 -3.418321 10.044711 249 246 241
-2.076017 -3.258019 10.002151 248 245 240
-2.099880 -2.447553 10.079083 250 245 241
-1.881047 -1.662818 9.023530 98 91 51
-1.883430 -1.436175 9.026247 35 35 27
-1.881929 -1.269541 9.021592 98 111 56
-1.883827 -1.184672 9.034186 30 27 22
-1.888245 -1.152721 9.054880 31 26 20
-1.892291 -0.921341 9.053777 235 202 154
-1.884799 -0.733097 9.029798 78 61 38
-1.435273 0.117660 6.863171 79 79 32
-1.396664 0.398991 6.678783 86 106 49
-1.360052 0.569668 6.509825 46 25 3
-1.361573 0.672039 6.506480 86 92 56
-1.361438 0.763761 6.511871 193 172 145
-2.003109 -2.052431 9.628033 183 168 136
-1.887946 -1.023503 9.073133 222 198 159
-1.886086 -0.871582 9.056248 158 149 105
-1.849978 -0.536823 8.880789 171 151 100
-1.843457 -0.485127 8.859271 206 183 141
-1.844265 -0.433019 8.846881 163 145 108
-1.837894 -0.217372 8.814459 237 218 176
-1.466663 0.056329 7.050197 91 96 17
-1.467144 0.079880 7.042066 123 137 52
-1.460907 0.101088 7.017783 201 200 156
-1.394546 0.350456 6.694486 145 135 78
-1.377711 0.471672 6.609742 130 126 63
-1.376777 0.485397 6.599006 141 132 69
-1.355708 0.615454 6.503033 207 213 101
-2.070501 -2.385824 10.003591 247 242 236
-1.879667 -1.784091 9.072784 118 97 51
-1.871744 -1.656996 9.020782 144 134 75
-1.858981 -1.574698 8.973706 184 171 90
-1.873619 -1.383036 9.028764 130 128 42
-1.878147 -0.981858 9.059398 232 205 158
-1.879860 -0.968477 9.059532 216 190 141
-1.847880 -0.527156 8.875477 117 97 58
-1.351514 0.590881 6.509230 143 141 32
-1.352340 0.708983 6.509799 127 113 61
-1.352129 0.765897 6.504330 195 173 143
-1.859295 -1.616150 8.975937 92 70 1
-1.858100 -1.538051 8.991832 207 168 94
-1.869472 -1.360803 9.027556 52 47 2
-1.869634 -1.322610 9.029387 138 150 66
-1.876301 -1.085857 9.065706 191 167 125
-1.865899 -0.644627 9.006680 70 57 40
-1.855577 -0.605525 8.961969 160 136 110
-1.511128 -0.083191 7.291678 89 72 22
-1.459630 0.035767 7.055430 183 181 71
-1.461169 0.064242 7.051364 132 132 42
-1.386168 0.168971 6.680511 143 151 86
-1.387359 0.328222 6.692430 195 204 121
-1.364943 0.531653 6.588559 130 123 52
-1.348096 0.597470 6.508308 139 155 35
-1.350269 0.746101 6.522938 222 198 163
-1.863895 -1.493000 9.025984 176 186 112
-1.870385 -1.145617 9.054357 30 25 22
-1.873601 -1.070034 9.069412 226 207 163
-1.870309 -0.873329 9.062018 75 54 29
-1.865700 -0.777135 9.044213 95 68 39
-1.838377 -0.553258 8.901630 104 86 54
-1.828308 -0.347523 8.847665 149 154 159
-1.822540 -0.299198 8.831878 60 91 140
-1.460244 0.003006 7.066186 164 167 68
-1.378804 0.225610 6.678838 125 136 77
-1.363954 0.483317 6.606878 88 76 29
-2.054110 -3.396005 10.025225 247 244 239
-1.972836 -1.994461 9.595287 195 173 133
-1.857942 -1.390609 9.039915 167 164 82
-1.863528 -1.080535 9.063874 183 154 116
-1.864157 -0.892756 9.064379 197 171 127
-1.862789 -0.803829 9.045431 217 189 146
-1.861648 -0.721228 9.030886 136 118 87
-1.854768 -0.642864 9.007082 74 58 38
-1.827665 -0.514949 8.872724 111 89 60
-1.817860 -0.271333 8.820022 65 99 145
-1.451419 0.063258 7.055812 194 197 81
-1.414686 0.088359 6.868602 149 153 74
-1.414829 0.143591 6.862117 43 54 11
-1.376618 0.251703 6.678100 131 141 75
-1.377105 0.269434 6.686877 142 142 77
-1.381725 0.372128 6.703684 67 77 36
-1.342984 0.701690 6.517005 83 93 49
-2.043660 -3.305802 9.990711 246 243 238
-1.851656 -1.724261 9.033345 205 184 129
-1.849122 -1.647088 9.027196 87 94 29
-1.858478 -0.837013 9.059997 206 177 129
-1.815229 -0.407912 8.847073 143 130 113
-1.450116 0.075646 7.054982 88 96 22
-1.373795 0.203744 6.679361 153 161 76
-1.341398 0.576176 6.522238 153 175 72
-1.842106 -1.600090 9.005780 118 122 36
-1.850088 -1.322412 9.044956 114 134 56
-1.854086 -1.162977 9.060444 30 26 22
-1.814086 -0.247693 8.847114 208 197 184
-1.496167 -0.106282 7.306393 88 81 11
-1.356186 0.473375 6.623739 70 60 2
-1.354367 0.508486 6.599550 171 147 95
-1.310691 0.759690 6.398562 189 168 139
-1.281612 0.793021 6.265127 148 133 108
-1.839216 -1.684111 9.033771 189 177 92
-1.836806 -1.534443 9.010748 137 151 50
-1.849388 -1.350534 9.047813 95 107 26
-1.845416 -1.282019 9.052360 100 112 39
-1.850425 -1.067457 9.067373 201 176 126
-1.813342 -0.515484 8.877422 212 188 152
-1.490149 -0.057197 7.303915 161 166 75
-1.401106 0.131289 6.859632 112 132 69
-1.369938 0.403108 6.710994 102 107 61
-1.365276 0.455804 6.689171 69 63 20
-1.344624 0.540569 6.591316 122 125 51
-1.329607 0.606011 6.508872 183 189 70
-2.010022 -3.334210 9.920741 248 245 240
-1.956256 -2.032150 9.636661 148 128 93
-1.840669 -1.697168 9.059355 157 143 69
-1.832521 -1.561445 9.009466 143 134 36
-1.841707 -1.199805 9.065371 32 25 22
-1.842916 -1.033469 9.074450 222 194 144
-1.487891 -0.084611 7.309731 100 94 20
-1.393461 0.104798 6.842529 93 96 16
-1.358496 0.257051 6.677152 157 166 110
-1.367132 0.382848 6.708348 78 85 15
-1.345899 0.503133 6.603964 175 105 79
-1.329000 0.741111 6.530644 208 185 153
-1.296585 0.779976 6.367363 197 176 145
-2.025437 -3.515752 10.020787 247 246 241
-2.019699 -2.318608 9.992779 248 243 237
-1.956468 -2.062153 9.649841 185 174 142
-1.903354 -1.839704 9.404162 153 136 94
-1.835622 -1.423705 9.059018 96 85 68
-1.835910 -1.283945 9.057927 153 147 67
-1.840623 -1.243952 9.063817 110 108 66
-1.837277 -1.216686 9.067506 31 28 21
-1.840133 -0.915039 9.071824 222 198 153
-1.841027 -0.825306 9.062506 212 186 143
-1.835318 -0.751834 9.048408 221 207 172
-1.794806 -0.378947 8.841827 94 84 71
-1.358940 0.157887 6.685080 57 65 16
-1.354887 0.198194 6.679323 175 187 100
-1.356126 0.235121 6.676330 95 101 60
-1.359927 0.435512 6.705367 171 101 93
-2.016089 -3.459934 10.003175 245 244 239
-2.018046 -2.244125 10.000256 248 243 237
-1.886492 -1.866329 9.350654 161 156 79
-1.826527 -1.529137 9.032913 105 120 46
-1.832710 -0.972542 9.071760 201 176 125
-1.836104 -0.922470 9.071353 225 199 153
-1.357772 0.330800 6.713015 161 172 96
-1.358457 0.345680 6.715953 198 205 106
-1.357408 0.451260 6.709133 53 44 11
-1.337416 0.527050 6.604486 175 124 96
-1.335647 0.540045 6.602695 76 46 10
-2.015108 -2.378744 10.009498 251 246 240
-1.823106 -1.679801 9.046010 178 162 106
-1.823489 -1.484597 9.063210 149 141 84
-1.823407 -1.362616 9.061836 74 81 16
-1.828812 -1.145028 9.072791 35 29 27
-1.830903 -1.034421 9.081915 209 182 127
-1.804485 -0.615465 8.954887 175 148 122
-1.791192 -0.569090 8.906337 125 116 83
-1.788308 -0.444159 8.862912 135 118 103
-1.475602 -0.044107 7.311931 132 138 62
-1.330299 0.566700 6.584394 158 145 98
-1.318009 0.694051 6.527238 90 92 57
-1.318440 0.722423 6.533945 155 124 91
-2.006057 -2.414767 10.006304 251 246 240
-2.009402 -2.289786 10.021913 246 241 235
-1.884549 -1.829970 9.380381 173 163 121
-1.818227 -1.718881 9.049629 123 111 69
-1.773358 -0.292398 8.819343 57 86 132
-1.426868 0.036134 7.098193 111 111 55
-1.346649 0.135829 6.693305 195 206 121
-1.332419 0.469327 6.627524 98 103 47
-1.284623 0.771757 6.374030 203 180 146
-2.029459 -2.225697 10.130106 252 247 240
-1.809749 -1.599151 9.036819 139 132 54
-1.815547 -1.400630 9.070522 92 68 40
-1.816434 -1.362754 9.067920 154 160 84
-1.815320 -1.302130 9.070052 91 77 28
-1.818471 -1.263979 9.066809 72 70 20
-1.814134 -0.778818 9.053224 194 181 136
-1.788617 -0.582474 8.915308 95 83 60
-1.782285 -0.520413 8.890106 179 162 135
-1.779620 -0.484090 8.880637 187 165 127
-1.425525 0.021667 7.099046 189 197 110
-1.328744 0.484801 6.616312 39 39 0
-1.325647 0.519063 6.611938 48 27 0
-1.325382 0.541898 6.605032 240 111 111
-1.309035 0.637989 6.529545 159 173 85
-1.998540 -2.311612 10.020023 251 246 240
-1.811885 -1.709652 9.063061 158 145 102
-1.807894 -1.649567 9.058592 74 61 6
-1.805683 -1.567445 9.043646 108 86 32
-1.813155 -1.321564 9.068640 100 87 44
-1.812470 -1.091047 9.078716 93 77 51
-1.815403 -1.040140 9.089400 174 154 111
-1.784222 -0.614201 8.921386 217 193 156
-1.768079 -0.364639 8.847758 110 99 73
-1.767704 -0.348290 8.849368 134 136 136
-1.345177 0.363929 6.725266 47 44 0
-1.344539 0.439986 6.720650 62 75 14
-1.925099 -2.068498 9.669979 176 160 127
-1.860481 -1.905963 9.359128 128 132 56
-1.805986 -1.681758 9.057580 135 121 74
-1.802719 -1.510471 9.066895 136 155 74
-1.805508 -1.455722 9.074827 125 100 67
-1.806753 -1.406918 9.073832 153 119 79
-1.810193 -1.002204 9.084917 142 128 98
-1.810746 -0.914235 9.082537 186 158 110
-1.799427 -0.720484 9.015556 93 79 56
-1.796852 -0.681934 9.001988 72 57 36
-1.767965 -0.430622 8.864786 177 158 128
-1.335282 0.124959 6.699916 43 52 4
-1.334944 0.178465 6.687722 97 112 43
-1.332678 0.190689 6.685690 126 137 51
-1.332931 0.241194 6.679670 85 99 29
-1.338907 0.282459 6.705998 97 109 68
-1.319036 0.495997 6.614265 87 93 58
-1.300733 0.608515 6.524942 121 134 52
-1.988676 -2.310373 10.033724 248 243 237
-1.800616 -1.222420 9.078161 168 150 103
-1.802204 -1.188760 9.075315 212 191 151
-1.803203 -0.977330 9.083752 172 166 126
-1.363375 0.095554 6.854022 108 124 66
-1.330826 0.150705 6.693119 79 80 24
-1.333553 0.292794 6.713113 103 115 76
-1.338041 0.338332 6.727862 22 29 4
-1.337729 0.398608 6.727051 52 66 17
-1.337709 0.415515 6.727959 117 96 46
-1.316818 0.510429 6.614625 111 122 51
-1.313966 0.538417 6.611766 196 78 75
-1.271412 0.779037 6.399753 200 177 145
-1.265170 0.794339 6.351460 200 180 150
-1.987876 -2.436047 10.051449 251 246 240
-1.792282 -1.603627 9.050644 156 134 91
-1.796084 -1.385635 9.079144 119 101 66
-1.798880 -0.942922 9.088403 76 62 33
-1.293908 0.606699 6.530033 50 70 7
-1.298804 0.752905 6.540594 163 142 112
-1.980107 -2.293066 10.033455 248 243 237
-1.791599 -1.125642 9.080475 143 138 110
-1.794108 -1.086317 9.083352 180 165 138
-1.446796 -0.029141 7.325074 132 130 33
-1.446682 0.026311 7.325275 108 123 25
-1.970149 -2.250167 10.022427 247 243 234
-1.783953 -1.778813 9.067993 159 137 91
-1.788580 -1.161313 9.078987 141 136 107
-1.354140 0.127195 6.867682 112 127 37
-1.319028 0.155627 6.699389 151 161 84
-1.318029 0.207890 6.686736 92 86 29
-1.327166 0.361796 6.735500 131 142 73
-1.324973 0.380149 6.730972 54 49 2
-1.304632 0.553961 6.610771 71 74 39
-1.294817 0.586938 6.565819 166 186 138
-1.288196 0.666284 6.544111 83 92 56
-1.272195 0.758964 6.464598 141 123 96
-1.782063 -1.448499 9.081683 157 135 95
-1.777573 -0.851233 9.058403 127 105 68
-1.774174 -0.802015 9.044218 161 143 100
-1.736278 -0.370259 8.842961 127 115 94
-1.737353 -0.345684 8.841351 107 100 97
-1.319877 0.316263 6.727602 115 118 97
-1.302029 0.538304 6.617309 184 187 114
-1.776582 -1.372823 9.084717 167 149 74
-1.776290 -1.318117 9.086347 154 142 109
-1.775169 -1.303544 9.088574 167 156 130
-1.779901 -1.066712 9.094870 177 158 130
-1.754347 -0.699392 8.956321 88 74 51
-1.744541 -0.607210 8.908031 132 120 94
-1.742081 -0.506196 8.887304 191 169 129
-1.728386 -0.298840 8.831200 85 117 167
-1.728906 -0.280764 8.825191 60 93 145
-1.732984 -0.250037 8.857055 139 147 173
-1.313824 0.179317 6.694076 106 116 50
-1.301798 0.481443 6.633551 90 107 56
-1.296663 0.569159 6.607825 62 66 23
-1.283137 0.698271 6.550722 140 152 78
-1.957012 -2.295986 10.052157 247 242 236
-1.958974 -2.136665 10.064811 183 160 117
-1.770343 -1.780114 9.076942 182 160 94
-1.766650 -1.733911 9.081923 152 134 89
-1.769167 -1.579453 9.072383 87 64 36
-1.769930 -1.353733 9.089732 143 126 45
-1.774304 -1.024633 9.102406 178 150 105
-1.775440 -0.971407 9.092936 225 199 157
-1.770129 -0.909332 9.083324 182 158 116
-1.432153 -0.021858 7.333011 122 133 28
-1.306213 0.198643 6.688494 213 227 128
-1.303095 0.242408 6.677552 159 169 60
-1.306949 0.291671 6.702266 35 38 16
-1.292425 0.513443 6.627018 54 73 11
-1.281521 0.734872 6.560250 207 186 155
-1.941444 -2.860107 10.020399 248 245 240
-1.764605 -1.509497 9.084265 182 179 96
-1.765227 -1.417326 9.089193 155 136 95
-1.765608 -1.395620 9.090583 182 161 118
-1.736215 -0.575200 8.925294 100 86 61
-1.721629 -0.378696 8.846323 141 129 114
-1.306772 0.115156 6.722891 73 80 18
-1.311225 0.430641 6.730482 38 63 13
-1.290448 0.518165 6.625475 75 92 26
-1.291219 0.530492 6.623591 102 114 56
-1.281951 0.588606 6.581532 37 55 16
-1.276440 0.665744 6.550244 99 112 66
-1.936531 -2.411201 10.017599 250 245 239
-1.940856 -2.213167 10.040825 243 239 230
-1.760397 -1.645395 9.090714 196 171 127
-1.760338 -1.525602 9.080761 127 111 47
-1.762705 -1.267292 9.099193 63 53 43
-1.755252 -0.883904 9.079834 151 133 88
-1.721044 -0.430087 8.865613 130 113 85
-1.713106 -0.349990 8.836127 117 110 88
-1.305582 0.377912 6.739129 98 122 43
-1.272000 0.619194 6.549366 94 125 46
-1.939382 -2.258700 10.045817 246 241 235
-1.942428 -2.237270 10.044819 245 241 232
-1.758728 -0.983860 9.098501 195 170 126
-1.722607 -0.639985 8.905994 97 80 56
-1.726152 -0.578831 8.923018 92 78 57
-1.727886 -0.555758 8.934304 92 69 46
-1.295793 0.156096 6.704913 42 54 10
-1.295011 0.208749 6.687081 116 129 57
-1.306751 0.344989 6.745890 131 148 99
-1.283718 0.499416 6.628540 117 136 79
-1.268689 0.697435 6.556477 85 81 34
-1.241697 0.762837 6.422524 158 138 108
-1.934726 -2.363876 10.045281 251 246 240
-1.749147 -1.740431 9.086794 168 145 110
-1.748846 -1.659906 9.099755 175 155 113
-1.753046 -1.325591 9.096622 177 162 117
-1.750423 -1.103975 9.099427 57 50 45
-1.750732 -0.947085 9.099425 189 165 124
-1.723614 -0.728741 8.950356 81 69 50
-1.291039 0.174987 6.697857 138 143 72
-1.277889 0.515959 6.631273 158 180 89
-1.277004 0.562157 6.612686 35 38 14
-1.262506 0.642450 6.559385 95 109 35
-1.236107 0.780098 6.409007 185 166 137
-1.928037 -2.473978 10.058872 252 247 241
-1.749237 -1.282225 9.105039 204 196 155
-1.748101 -1.241322 9.107221 130 102 78
-1.747776 -0.939017 9.098680 204 181 137
-1.735758 -0.854161 9.058234 89 73 38
-1.705721 -0.482669 8.879641 209 186 147
-1.703714 -0.450766 8.872453 136 116 83
-1.698061 -0.362115 8.839562 102 93 71
-1.262068 0.601604 6.553814 119 136 63
-1.917896 -2.410093 10.044809 252 247 241
-1.929159 -2.112670 10.090790 204 181 141
-1.741437 -1.726984 9.100293 179 155 116
-1.738478 -1.606173 9.100283 153 130 90
-1.738599 -1.581187 9.098008 121 101 60
-1.741504 -1.467658 9.099556 210 184 137
-1.741368 -1.354002 9.107938 126 109 81
-1.705346 -0.630239 8.909118 138 120 87
-1.706646 -0.567327 8.926637 113 90 61
-1.705108 -0.529434 8.914112 213 188 164
-1.705105 -0.510933 8.889741 196 172 126
-1.287371 0.130227 6.713000 119 129 65
-1.278923 0.266928 6.663805 132 140 97
-1.293454 0.379125 6.747470 35 53 6
-1.272448 0.512987 6.631464 109 129 56
-1.255987 0.752462 6.562811 214 191 157
-1.910158 -2.617710 10.047615 251 246 242
-1.913394 -2.474512 10.051106 251 246 240
-1.738554 -1.170243 9.104257 204 173 134
-1.724552 -0.838185 9.049818 81 57 35
-1.707054 -0.750681 8.955191 142 118 85
-1.683860 -0.254582 8.820516 88 112 155
-1.279026 0.163819 6.689970 174 182 82
-1.288233 0.412821 6.740870 28 39 0
-1.256564 0.590864 6.586261 66 82 30
-1.908386 -2.540873 10.059433 254 249 243
-1.910029 -2.257132 10.056397 246 242 233
-1.913406 -2.156243 10.056314 183 169 136
-1.731950 -1.521768 9.098754 179 152 110
-1.733921 -1.132031 9.103209 207 183 141
-1.735112 -1.035641 9.113783 109 92 73
-1.685339 -0.444796 8.864085 147 133 102
-1.682039 -0.345051 8.848102 141 135 122
-1.682622 -0.296026 8.842031 87 113 158
-1.272460 0.206224 6.679340 172 181 118
-1.283242 0.442289 6.739447 117 137 56
-1.268090 0.483861 6.648271 47 56 32
-1.251550 0.658534 6.569995 134 151 85
-1.719889 -1.756343 9.101589 165 148 107
-1.725058 -1.582722 9.106163 200 180 138
-1.707320 -0.790169 9.012180 255 233 189
-1.691889 -0.646538 8.917138 160 142 110
-1.689762 -0.626659 8.911880 159 143 108
-1.698537 -0.570224 8.933476 116 93 60
-1.675593 -0.281134 8.836298 68 101 134
-1.677986 -0.245736 8.825567 174 164 167
-1.282181 0.361266 6.757094 21 32 4
-1.246782 0.682849 6.569979 142 115 67
-1.900956 -2.999628 10.102244 252 249 244
-1.895681 -2.592335 10.072528 251 246 242
-1.719687 -1.430448 9.104537 137 118 82
-1.720599 -1.374682 9.108592 77 72 40
-1.720887 -1.354193 9.109710 61 49 38
-1.720605 -1.148462 9.103002 208 183 142
-1.720659 -0.990338 9.111017 142 119 88
-1.678338 -0.426190 8.855855 172 166 146
-1.347593 0.016347 7.130549 115 119 35
-1.268316 0.128172 6.703364 56 59 8
-1.261263 0.229250 6.673720 128 140 73
-1.269883 0.301643 6.693051 43 43 17
-1.278571 0.331412 6.748955 81 97 70
-1.276569 0.416878 6.742324 69 73 8
-1.274599 0.430698 6.737891 40 46 10
-1.246069 0.620268 6.574281 88 109 43
-1.243000 0.643824 6.579015 60 84 16
-1.245513 0.708432 6.569910 108 105 68
-1.201581 0.800657 6.352002 196 173 139
-1.894824 -3.026397 10.093893 249 246 241
-1.893792 -2.474737 10.061977 253 248 242
-1.716621 -1.755623 9.107199 150 135 96
-1.715026 -1.686113 9.117944 146 128 90
-1.714539 -1.159965 9.102743 176 149 109
-1.716925 -0.957379 9.104632 171 145 118
-1.681801 -0.676810 8.921823 88 66 42
-1.683898 -0.559964 8.934167 112 87 52
-1.674466 -0.516410 8.890874 222 199 157
-1.667643 -0.361087 8.846087 162 151 116
-1.669933 -0.352324 8.844417 138 128 97
-1.631251 -0.154628 8.647946 235 216 174
-1.251898 0.535781 6.640828 95 101 58
-1.205565 0.769159 6.384855 186 167 139
-1.879179 -3.102155 10.033922 249 246 241
-1.890284 -2.434814 10.061084 251 246 240
-1.709323 -1.780509 9.131160 177 157 118
-1.711586 -1.401847 9.110229 75 55 31
-1.711394 -1.251067 9.110109 172 159 130
-1.711267 -1.197492 9.103913 71 49 22
-1.711927 -0.991381 9.111958 190 173 138
-1.674190 -0.632436 8.908378 116 107 89
-1.254292 0.278046 6.679935 134 153 93
-1.236607 0.663617 6.581142 104 123 65
-1.868607 -2.642638 9.990882 248 243 237
-1.706415 -1.578111 9.110419 105 77 64
-1.706367 -1.026941 9.117449 114 101 84
-1.705533 -0.912244 9.099723 109 97 62
-1.703103 -0.887365 9.099661 180 164 127
-1.671133 -0.640328 8.908597 82 77 64
-1.669595 -0.541675 8.916360 59 48 30
-1.338335 -0.031791 7.147345 77 83 39
-1.253733 0.241941 6.672770 77 90 38
-1.265652 0.391188 6.751888 33 47 0
-1.239288 0.586003 6.606985 93 114 26
-1.234124 0.712907 6.575187 79 93 51
-1.874142 -3.333345 10.076892 251 248 243
-1.873163 -3.138439 10.059657 247 244 239
-1.878452 -2.178419 10.076133 229 226 210
-1.702650 -1.605428 9.115508 203 177 143
-1.700618 -1.312559 9.117995 119 102 74
-1.701928 -0.959658 9.110052 194 178 140
-1.251589 0.311702 6.708601 57 61 36
-1.257495 0.429920 6.731783 116 120 29
-1.229173 0.615582 6.583633 96 114 50
-1.190420 0.800622 6.361645 194 170 134
-1.866525 -2.705626 10.050941 253 248 242
-1.869614 -2.490484 10.079695 251 246 240
-1.872783 -2.132305 10.087275 159 139 104
-1.696282 -1.747642 9.127445 184 161 124
-1.697631 -1.707463 9.127564 185 164 126
-1.693424 -1.132895 9.100903 92 74 40
-1.693413 -1.099442 9.102369 204 181 138
-1.695085 -1.067899 9.111040 153 125 84
-1.662476 -0.558518 8.918638 106 80 46
-1.652424 -0.487802 8.880306 218 194 154
-1.650665 -0.429359 8.857610 195 176 141
-1.259917 0.350323 6.767956 72 77 52
-1.244091 0.502034 6.663683 76 80 42
-1.236930 0.555858 6.627441 98 107 65
-1.189035 0.784080 6.376232 196 175 144
-1.863502 -3.233208 10.092387 249 246 241
-1.865016 -2.242930 10.085248 210 214 210
-1.868679 -2.209840 10.079502 165 167 168
-1.701026 -1.813261 9.177917 191 170 127
-1.690271 -1.530298 9.111695 184 167 139
-1.689024 -1.426672 9.114064 120 108 83
-1.688024 -1.164528 9.110468 161 142 105
-1.690858 -1.011231 9.114396 64 50 36
-1.671670 -0.803588 9.007783 239 216 171
-1.654696 -0.628289 8.911808 144 131 113
-1.246349 0.449059 6.722051 191 196 116
-1.237001 0.533629 6.655526 88 94 48
-1.222109 0.624568 6.587753 118 140 73
-1.211523 0.769386 6.519519 211 187 154
-1.860892 -2.264273 10.088231 203 209 208
-1.860092 -2.123016 10.092467 202 183 139
-1.690348 -1.755998 9.146386 155 134 99
-1.684168 -1.360098 9.117442 152 126 91
-1.683920 -1.218383 9.118390 170 162 133
-1.644446 -0.526273 8.897182 190 166 137
-1.629375 -0.270177 8.826238 56 90 133
-1.631022 -0.232782 8.810669 233 213 178
-1.406159 0.089474 7.598508 88 95 41
-1.247789 0.418089 6.740539 55 67 0
-1.221382 0.586767 6.597918 46 58 3
-1.218081 0.744160 6.582097 219 195 160
-1.846953 -2.660567 10.061512 250 245 241
-1.854373 -2.303662 10.085350 209 217 215
-1.856465 -2.285052 10.079845 146 155 156
-1.679684 -1.652261 9.125486 173 157 115
-1.679796 -1.565984 9.117282 163 144 110
-1.677852 -1.077760 9.114817 185 170 126
-1.678350 -1.026591 9.118573 158 137 94
-1.645050 -0.706007 8.924196 147 126 78
-1.633814 -0.443540 8.860938 183 160 121
-1.630282 -0.340469 8.840565 152 154 161
-1.247806 0.364177 6.763538 77 95 47
-1.235491 0.508118 6.683589 116 124 57
-1.854807 -3.142218 10.143545 250 247 242
-1.850604 -3.056657 10.125044 250 247 242
-1.846845 -2.357475 10.085820 220 225 220
-1.849108 -2.330847 10.080726 151 158 157
-1.852780 -2.121362 10.093493 173 154 110
-1.676730 -1.628813 9.124302 188 168 131
-1.679131 -1.205892 9.117433 132 125 98
-1.674248 -1.130783 9.111078 147 132 100
-1.646174 -0.782549 8.960155 247 223 178
-1.231098 0.140816 6.692908 131 132 66
-1.236909 0.327277 6.722971 129 134 100
-1.241296 0.403448 6.744579 99 116 24
-1.236385 0.475945 6.719790 72 82 47
-1.209663 0.705583 6.583059 167 161 112
-1.172622 0.792200 6.374976 182 162 136
-1.846298 -2.376360 10.089723 137 148 150
-1.678300 -1.798947 9.161654 205 183 138
-1.668208 -0.855073 9.096374 119 88 70
-1.629177 -0.706870 8.920465 119 96 58
-1.621699 -0.423951 8.857561 155 137 113
-1.224487 0.216700 6.682305 171 186 131
-1.224646 0.247484 6.682020 123 128 66
-1.226374 0.270797 6.693549 157 153 108
-1.209912 0.673056 6.594888 102 120 48
-1.839227 -3.210598 10.100942 249 246 241
-1.839158 -2.696408 10.104805 250 245 241
-1.836605 -2.496697 10.099611 199 203 204
-1.836287 -2.473281 10.097061 232 237 235
-1.837899 -2.453787 10.093891 155 165 168
-1.662366 -1.579375 9.125419 162 149 115
-1.661786 -1.315747 9.118077 166 144 106
-1.661470 -1.292314 9.119676 199 179 142
-1.666767 -1.187034 9.121061 144 133 108
-1.662590 -1.155936 9.121694 145 125 86
-1.666104 -0.897505 9.116837 50 46 35
-1.221527 0.150599 6.691301 164 169 82
-1.219615 0.193397 6.681062 89 83 11
-1.207810 0.566345 6.610177 43 43 5
-1.202758 0.747712 6.582349 211 195 156
-1.835553 -3.033124 10.140257 248 245 240
-1.834997 -2.129805 10.107750 185 162 128
-1.657934 -1.475972 9.121964 205 194 157
-1.660046 -1.053176 9.118946 136 124 97
-1.661143 -0.979520 9.121165 204 191 157
-1.661454 -0.929834 9.118852 65 58 48
-1.630047 -0.787610 8.953506 241 222 175
-1.623957 -0.711944 8.921444 142 116 80
-1.226954 0.417199 6.733018 81 93 26
-1.202325 0.640617 6.598195 119 122 67
-1.199494 0.697676 6.581286 100 110 59
-1.829987 -2.615081 10.124889 250 245 241
-1.829450 -2.540087 10.107714 146 158 164
-1.830919 -2.268173 10.106843 125 126 131
-1.825869 -2.180114 10.102714 164 145 111
-1.654180 -1.725927 9.144900 188 170 132
-1.652780 -1.027791 9.124680 141 128 85
-1.212336 0.178833 6.683279 214 222 126
-1.214648 0.274984 6.701019 81 70 36
-1.219949 0.398741 6.726732 88 108 46
-1.199293 0.537261 6.609892 142 145 74
-1.198726 0.623254 6.596872 159 172 120
-1.821771 -2.320712 10.100554 126 126 132
-1.822533 -2.241434 10.112777 123 122 127
-1.607707 -0.587098 8.910398 116 91 63
-1.441673 0.010140 7.952747 204 208 121
-1.438094 0.035414 7.940521 147 147 32
-1.211959 0.511180 6.698062 128 150 55
-1.191874 0.698188 6.582350 57 65 15
-1.644334 -1.718270 9.149934 185 166 133
-1.643294 -1.620165 9.134068 140 123 92
-1.643665 -1.537264 9.123369 77 62 40
-1.643707 -1.391618 9.123864 65 57 41
-1.642669 -1.376908 9.124352 124 118 93
-1.643340 -1.262971 9.123118 171 165 133
-1.640701 -1.152107 9.124170 128 110 89
-1.641098 -1.115919 9.122804 158 134 107
-1.637651 -0.824810 9.085718 251 231 186
-1.618586 -0.788855 8.965479 232 210 164
-1.203574 0.205344 6.679352 76 94 39
-1.216246 0.400847 6.727784 107 127 61
-1.188969 0.517419 6.596177 41 48 7
-1.811431 -2.360084 10.105272 118 122 131
-1.640618 -1.796916 9.152618 187 163 118
-1.642911 -1.738395 9.150041 176 156 121
-1.636355 -1.504333 9.124021 115 92 73
-1.638338 -1.231209 9.128905 193 178 148
-1.598778 -0.682895 8.909501 142 130 107
-1.210157 0.428269 6.729085 111 131 44
-1.208103 0.442907 6.730411 62 72 5
-1.184404 0.503525 6.593799 151 173 66
-1.187425 0.666743 6.601391 61 84 18
-1.808473 -2.574091 10.121913 176 191 190
-1.634284 -1.707489 9.145520 196 176 144
-1.634158 -1.690583 9.142214 194 174 137
-1.630369 -1.568928 9.131876 178 151 120
-1.631947 -1.264826 9.126021 60 54 41
-1.636665 -0.998052 9.129652 202 198 152
-1.634266 -0.947441 9.134803 53 53 48
-1.595802 -0.533560 8.905857 224 200 160
-1.197655 0.244362 6.681965 38 45 17
-1.205235 0.476531 6.722320 134 143 73
-1.201946 0.494281 6.714993 131 129 67
-1.184473 0.538444 6.601052 104 113 45
-1.180648 0.710097 6.584721 76 81 37
-1.179466 0.726666 6.586455 107 104 82
-1.171692 0.775248 6.536672 196 177 146
-1.625744 -1.463850 9.129019 171 157 129
-1.624196 -0.867954 9.120897 231 204 171
-1.580016 -0.439716 8.851362 189 165 134
-1.572887 -0.255644 8.819691 86 110 154
-1.180271 0.632610 6.604034 115 121 80
-1.173536 0.758698 6.567630 204 183 156
-1.778397 -2.678249 10.032268 248 243 237
-1.794988 -2.475963 10.119784 120 123 130
-1.791770 -2.349496 10.112804 118 123 129
-1.623645 -1.712742 9.151464 179 156 122
-1.627095 -1.679072 9.147623 192 173 135
-1.620902 -1.530785 9.131084 193 173 123
-1.621891 -1.114056 9.129808 143 133 94
-1.583603 -0.727521 8.915289 116 97 76
-1.571873 -0.285734 8.846590 84 117 174
-1.571410 -0.271611 8.830741 70 108 156
-1.779644 -3.037497 10.077761 249 247 242
-1.788591 -2.436342 10.119314 119 123 134
-1.791051 -2.425214 10.117574 119 124 130
-1.721217 -1.945383 9.743958 204 181 140
-1.617305 -1.088765 9.127922 144 129 103
-1.618309 -0.948568 9.135685 48 47 42
-1.602078 -0.819093 9.025890 254 235 188
-1.577626 -0.599449 8.907990 164 139 110
-1.567301 -0.368255 8.836425 178 165 123
-1.565329 -0.347293 8.837702 89 98 94
-1.555516 -0.175017 8.791024 235 216 174
-1.188956 0.153628 6.701250 129 144 50
-1.185908 0.209452 6.693016 71 87 32
-1.198342 0.303560 6.747223 71 70 41
-1.169845 0.703536 6.589285 96 102 42
-1.775167 -3.336844 10.089242 250 247 242
-1.787297 -2.599153 10.145421 169 183 182
-1.785850 -2.465736 10.125369 120 123 131
-1.784702 -2.270623 10.131055 124 125 128
-1.611771 -1.798142 9.162158 209 180 141
-1.613755 -1.712257 9.146383 168 146 107
-1.610051 -1.501096 9.131275 175 163 134
-1.612452 -1.262715 9.132277 200 175 128
-1.612807 -1.131681 9.132034 159 150 131
-1.183633 0.171016 6.701260 154 160 75
-1.184517 0.407858 6.699487 46 64 19
-1.165009 0.550966 6.589992 123 128 61
-1.165803 0.697379 6.586957 100 112 34
-1.766218 -3.020557 10.079037 251 248 243
-1.780080 -2.618131 10.157868 236 247 238
-1.775801 -2.385630 10.131318 120 123 130
-1.772675 -2.316991 10.122524 120 119 125
-1.606176 -1.647592 9.147754 136 116 89
-1.609414 -1.318419 9.134992 175 148 102
-1.605734 -1.063143 9.135950 138 117 82
-1.567007 -0.669767 8.903280 170 149 115
-1.560725 -0.509619 8.876268 224 200 155
-1.188479 0.279329 6.741306 138 136 95
-1.188252 0.341773 6.753364 20 23 7
-1.180850 0.384741 6.711401 34 47 15
-1.182345 0.445084 6.712512 134 153 59
-1.163092 0.589454 6.602080 107 117 90
-1.160446 0.686832 6.594053 80 96 19
-1.766316 -2.183960 10.106465 208 188 160
-1.602041 -1.713405 9.158165 194 171 130
-1.601045 -1.592011 9.141677 147 118 89
-1.601593 -1.387916 9.143675 203 183 143
-1.597874 -1.207013 9.134124 208 178 136
-1.601826 -0.971528 9.135919 48 45 40
-1.558493 -0.511158 8.874681 226 202 158
-1.158556 0.726871 6.589119 113 117 64
-1.150118 0.764692 6.556572 191 173 142
-1.767032 -2.328222 10.123005 119 120 125
-1.595222 -1.677438 9.155186 183 158 118
-1.593931 -1.529122 9.136964 133 129 95
-1.593896 -1.320374 9.142086 179 161 117
-1.546538 -0.381815 8.835503 134 129 110
-1.152265 0.518004 6.597143 67 87 8
-1.155988 0.607017 6.608256 122 129 93
-1.153163 0.704315 6.592301 59 72 27
-1.758747 -2.417061 10.123641 120 123 128
-1.760965 -2.385750 10.131948 116 119 126
-1.694367 -1.960281 9.748194 166 145 102
-1.592406 -1.033236 9.138289 177 172 137
-1.570337 -0.871178 9.028366 57 40 30
-1.570506 -0.834428 9.018238 231 201 149
-1.541968 -0.430126 8.850937 138 114 83
-1.537925 -0.241157 8.815443 164 161 159
-1.170677 0.148201 6.716817 161 187 83
-1.170248 0.221591 6.712276 106 124 62
-1.151913 0.511118 6.596459 67 87 30
-1.752573 -2.498009 10.136592 114 118 129
-1.765950 -2.200784 10.180555 171 152 127
-1.583095 -1.099578 9.145218 182 164 129
-1.578575 -0.923002 9.097077 55 54 44
-1.559019 -0.756399 8.957440 233 210 166
-1.554066 -0.730088 8.933758 209 182 137
-1.543147 -0.682531 8.909193 136 108 64
-1.528730 -0.270741 8.829071 55 95 148
-1.165588 0.205956 6.714860 97 113 68
-1.168664 0.373711 6.718467 33 41 21
-1.147058 0.533433 6.599000 85 104 49
-1.145325 0.711175 6.590544 119 133 90
-1.742667 -3.307526 10.124320 249 246 241
-1.753454 -2.903543 10.176686 250 245 241
-1.755264 -2.578865 10.158853 120 127 136
-1.747093 -2.504917 10.129733 118 122 133
-1.606794 -2.098988 9.309075 115 120 124
-1.582894 -1.740983 9.162962 188 168 131
-1.581588 -1.722503 9.161517 187 164 123
-1.581436 -1.695957 9.159361 177 154 112
-1.580972 -1.185388 9.147047 206 193 147
-1.579810 -0.945272 9.136157 56 54 42
-1.544427 -0.714487 8.917458 241 209 162
-1.544217 -0.611101 8.926434 215 186 148
-1.165375 0.288343 6.734919 98 99 67
-1.137085 0.771788 6.557847 216 197 165
-1.760231 -2.175341 10.230610 161 139 101
-1.575700 -1.798167 9.169459 179 156 114
-1.576956 -1.656856 9.154486 172 148 105
-1.575189 -1.473503 9.140742 229 205 159
-1.576650 -1.132680 9.151710 125 112 84
-1.539317 -0.598939 8.927431 210 186 143
-1.536430 -0.570988 8.913798 56 32 8
-1.527747 -0.336011 8.848359 87 99 119
-1.160597 0.153629 6.722703 28 33 8
-1.158619 0.266457 6.719412 61 64 43
-1.140655 0.471047 6.610203 99 120 57
-1.139587 0.649929 6.616392 117 121 22
-1.136583 0.723958 6.582623 138 136 79
-1.112574 0.786043 6.436627 222 201 169
-1.570046 -1.553771 9.143780 82 58 44
-1.572128 -1.352311 9.152447 161 149 127
-1.573023 -1.155055 9.152754 202 196 178
-1.570781 -1.060955 9.148729 215 209 172
-1.532038 -0.639471 8.915293 190 166 128
-1.528972 -0.526682 8.895513 235 210 162
-1.138657 0.459228 6.617698 116 141 71
-1.136463 0.522969 6.604644 123 146 96
-1.670115 -2.166778 9.767231 117 118 123
-1.564013 -1.438856 9.144131 180 157 128
-1.566886 -1.264006 9.149636 86 81 60
-1.567573 -1.200515 9.150021 153 150 133
-1.564642 -0.981555 9.143522 37 34 27
-1.544503 -0.830398 9.023990 242 213 153
-1.539145 -0.802815 9.008714 250 226 172
-1.539348 -0.760130 8.969540 248 226 184
-1.514304 -0.416999 8.857309 204 182 143
-1.153828 0.209390 6.723248 80 89 31
-1.128609 0.710352 6.586062 97 107 75
-1.653348 -2.189819 9.734311 116 116 120
-1.736252 -2.139477 10.185905 184 162 121
-1.562760 -1.241231 9.152052 126 117 94
-1.542385 -0.864479 9.035034 191 173 145
-1.502720 -0.248855 8.821989 96 118 158
-1.149088 0.188608 6.725585 78 94 26
-1.123460 0.726070 6.582519 84 88 42
-1.121829 0.768821 6.566599 219 203 170
-1.731653 -2.748576 10.232456 251 246 240
-1.715699 -2.645264 10.128257 149 168 170
-1.553766 -1.287941 9.148112 103 81 64
-1.552629 -1.261635 9.150568 74 68 49
-1.143096 0.254052 6.714756 76 83 49
-1.137531 0.341693 6.695627 157 161 107
-1.124516 0.480388 6.619252 34 40 9
-1.703381 -3.209132 10.117334 248 245 240
-1.486447 -2.223078 8.791852 116 120 129
-1.549648 -1.705365 9.167374 212 190 144
-1.549758 -1.623185 9.161180 179 155 121
-1.526577 -0.824876 9.028016 241 214 163
-1.505768 -0.502039 8.891250 159 146 113
-1.711566 -3.039603 10.168306 253 248 242
-1.567507 -2.142938 9.314569 109 110 115
-1.645465 -2.191813 9.761624 119 118 124
-1.525295 -0.885333 9.050054 35 30 27
-1.524181 -0.848004 9.036179 223 209 179
-1.509766 -0.653856 8.929573 106 87 57
-1.512992 -0.613389 8.944072 74 55 34
-1.503136 -0.483342 8.884439 157 143 113
-1.135471 0.200105 6.731771 80 105 35
-1.118848 0.483241 6.617872 46 52 28
-1.696205 -3.140617 10.137287 250 245 241
-1.708168 -2.191116 10.171664 191 166 128
-1.709476 -2.158906 10.172247 166 140 99
-1.541204 -1.827915 9.187565 176 153 112
-1.540168 -0.997813 9.148167 56 55 51
-1.537657 -0.978417 9.151219 55 54 50
-1.540066 -0.959520 9.147633 57 56 54
-1.497844 -0.703743 8.909477 183 160 119
-1.492063 -0.461262 8.878806 169 157 138
-1.490510 -0.440524 8.875211 121 104 82
-1.488125 -0.353231 8.854593 68 52 41
-1.362289 0.077996 8.098185 94 99 29
-1.113910 0.512675 6.618484 172 181 138
-1.112292 0.547346 6.613296 32 47 0
-1.112712 0.650260 6.600920 126 141 38
-1.691093 -3.628716 10.137050 249 246 241
-1.685529 -3.387552 10.107640 248 245 240
-1.535596 -1.730898 9.172649 206 182 144
-1.535004 -1.694444 9.173905 181 161 121
-1.534912 -1.127942 9.171573 64 64 60
-1.535477 -1.112736 9.169291 56 57 52
-1.517858 -0.902324 9.061935 57 53 52
-1.497427 -0.568987 8.931695 166 142 112
-1.483758 -0.328967 8.848377 101 107 137
-1.128435 0.227987 6.726356 90 70 34
-1.629727 -2.195670 9.767348 115 115 123
-1.530701 -1.753237 9.181716 188 165 123
-1.528094 -1.598333 9.166191 109 99 75
-1.525898 -1.399988 9.151834 197 181 147
-1.526685 -1.241108 9.154653 215 210 176
-1.506922 -0.802137 9.026674 72 52 36
-1.486695 -0.516294 8.905933 104 82 55
-1.480227 -0.288132 8.842306 72 109 151
-1.476058 -0.267416 8.828325 66 108 146
-1.126623 0.183997 6.739054 92 89 19
-1.113062 0.408048 6.658148 141 160 56
-1.075200 0.795609 6.426199 218 199 166
-1.664616 -2.985803 10.066164 255 250 244
-1.681407 -2.948529 10.138918 252 247 243
-1.680681 -2.875562 10.132959 251 246 242
-1.620198 -2.180847 9.775227 115 114 122
-1.626826 -2.037523 9.784232 167 142 103
-1.524501 -1.624378 9.169511 120 113 82
-1.521772 -1.575397 9.166307 210 199 167
-1.520913 -1.560689 9.164648 164 150 114
-1.520858 -1.543231 9.163246 218 204 170
-1.523475 -1.048178 9.165989 55 53 49
-1.478361 -0.418967 8.870308 165 144 109
-1.121644 0.231043 6.727412 203 192 136
-1.103111 0.440805 6.627973 171 189 101
-1.079256 0.787071 6.485723 217 198 166
-1.517188 -1.520223 9.158408 87 80 51
-1.516608 -1.332284 9.156483 58 57 44
-1.520260 -1.154117 9.178761 72 69 64
-1.510909 -0.939982 9.115108 49 46 42
-1.494081 -0.763046 9.008476 251 232 193
-1.485722 -0.659627 8.948012 215 191 152
-1.476637 -0.502964 8.897822 191 166 135
-1.471486 -0.457355 8.884015 176 150 126
-1.120452 0.151719 6.749483 21 24 0
-1.112209 0.317655 6.706949 123 144 76
-1.110129 0.379792 6.693531 110 109 81
-1.100891 0.445116 6.626595 167 184 110
-1.097466 0.604741 6.601408 97 103 78
-1.092571 0.758935 6.575446 177 162 133
-1.663847 -3.601080 10.123645 250 247 242
-1.511546 -1.702601 9.173791 189 170 130
-1.508965 -1.455140 9.152725 90 74 45
-1.508498 -1.360421 9.156200 49 42 34
-1.514528 -1.055184 9.168271 66 63 58
-1.322437 0.006007 8.005972 177 169 106
-1.095403 0.514256 6.617544 90 120 52
-1.093917 0.556511 6.604484 60 81 7
-1.090681 0.619771 6.590511 20 21 14
-1.086668 0.659592 6.582790 68 77 39
-1.087617 0.739827 6.567164 186 174 142
-1.505003 -1.662470 9.176441 190 175 136
-1.508733 -1.120406 9.180114 68 65 54
-1.508819 -0.967520 9.161243 49 47 41
-1.470418 -0.692436 8.931970 201 176 139
-1.474303 -0.632888 8.942671 90 69 45
-1.466839 -0.565007 8.921247 208 184 145
-1.453411 -0.241008 8.822494 179 181 191
-1.110838 0.197099 6.746342 89 99 43
-1.104277 0.278929 6.713647 137 135 97
-1.105304 0.290831 6.710677 33 27 0
-1.104596 0.377267 6.695920 23 16 0
-1.100904 0.388256 6.685755 40 34 6
-1.099856 0.397193 6.680111 117 127 57
-1.598546 -2.192036 9.780211 115 114 120
-1.501296 -1.638860 9.179465 91 76 50
-1.502865 -1.090352 9.177764 61 60 52
-1.503342 -1.033205 9.170532 54 49 43
-1.493736 -0.942202 9.122565 51 48 43
-1.486885 -0.894716 9.072399 43 42 38
-1.485725 -0.796145 9.044044 230 212 178
-1.456368 -0.351510 8.861255 159 149 127
-1.311705 0.007962 7.992695 173 166 110
-1.104465 0.246686 6.727976 71 74 48
-1.090772 0.423433 6.638064 81 90 40
-1.081677 0.574295 6.601322 20 29 10
-1.078044 0.704761 6.573730 119 121 74
-1.597892 -2.116841 9.809628 182 153 117
-1.597931 -2.096620 9.807721 179 161 120
-1.500853 -1.821148 9.194019 198 174 128
-1.499751 -1.792381 9.189244 189 167 130
-1.497822 -1.738352 9.184022 186 163 126
-1.496579 -1.713811 9.181594 172 153 113
-1.496075 -1.441920 9.153654 155 139 119
-1.495738 -1.220994 9.172771 43 41 43
-1.497114 -1.052414 9.173903 60 57 49
-1.485619 -0.902970 9.077628 50 46 45
-1.102931 0.197422 6.752524 111 124 66
-1.083978 0.482499 6.621588 124 136 99
-1.494453 -1.611286 9.177546 227 204 162
-1.492228 -1.585575 9.175792 180 158 132
-1.092561 0.312652 6.715109 147 144 67
-1.088514 0.382394 6.692304 85 83 33
-1.632068 -3.396685 10.122275 247 244 239
-1.634000 -2.870147 10.103737 250 247 242
-1.637213 -2.868365 10.126660 252 249 244
-1.640724 -2.860783 10.142380 251 248 243
-1.639425 -2.713915 10.155557 185 198 194
-1.467133 -2.358173 9.062433 115 118 125
-1.591992 -2.054359 9.800651 195 173 124
-1.483889 -1.430482 9.169548 106 88 64
-1.447696 -0.617350 8.939865 78 61 33
-1.099023 0.152661 6.766147 170 180 86
-1.089530 0.336460 6.712987 51 44 8
-1.090686 0.353595 6.707503 110 104 39
-1.080873 0.404967 6.655895 73 96 16
-1.072294 0.598153 6.596707 30 30 12
-1.068244 0.636427 6.582710 34 40 13
-1.067374 0.730274 6.572631 149 148 111
-1.630510 -3.500761 10.127624 249 246 241
-1.628085 -3.461036 10.141611 250 247 242
-1.627418 -3.345569 10.125900 247 244 239
-1.625623 -3.254704 10.127422 251 246 240
-1.582744 -1.999294 9.797705 163 140 98
-1.479617 -1.550639 9.180705 191 170 131
-1.486966 -1.001763 9.174417 59 55 52
-1.088657 0.290762 6.715270 81 84 39
-1.086315 0.318431 6.715715 97 99 29
-1.066336 0.771542 6.577054 177 161 133
-1.624816 -3.422961 10.140562 247 244 239
-1.626803 -3.084905 10.137438 248 243 237
-1.576895 -2.163921 9.811236 113 112 117
-1.572422 -2.082400 9.809152 171 148 111
-1.477979 -1.657828 9.188070 160 146 118
-1.474877 -1.529875 9.179837 155 134 103
-1.473720 -1.366063 9.167012 85 59 30
-1.473747 -1.302247 9.168048 175 164 132
-1.478008 -1.145926 9.185654 39 39 34
-1.479538 -0.970124 9.176293 51 49 42
-1.460768 -0.903994 9.089370 51 50 47
-1.442711 -0.665463 8.959262 233 210 169
-1.428176 -0.333435 8.860720 147 161 172
-1.428420 -0.295420 8.852030 90 132 182
-1.424394 -0.244162 8.839737 119 136 164
-1.088740 0.192867 6.760174 154 170 109
-1.070001 0.459864 6.627136 97 115 60
-1.063961 0.550721 6.602321 66 72 55
-1.621792 -3.483367 10.142249 249 246 241
-1.477509 -1.843281 9.210885 184 158 118
-1.472718 -1.675943 9.190726 213 192 151
-1.435354 -0.711594 8.953488 241 218 178
-1.437067 -0.681269 8.944384 117 93 67
-1.432139 -0.586999 8.931778 211 181 146
-1.429678 -0.476103 8.901531 204 180 134
-1.063771 0.446159 6.632401 75 88 16
-1.055217 0.766561 6.576316 193 175 151
-1.048486 0.785690 6.534916 220 199 167
-1.617099 -2.896867 10.149220 250 245 239
-1.465845 -1.510727 9.178056 199 180 148
-1.448891 -0.889209 9.089172 31 30 27
-1.053345 0.670712 6.578581 205 212 96
-1.560765 -2.116987 9.816845 199 177 136
-1.459178 -1.417415 9.177853 207 181 155
-1.460514 -1.233846 9.168957 55 50 43
-1.460705 -1.196780 9.172590 48 45 36
-1.447709 -0.855823 9.081841 62 57 54
-1.428039 -0.661882 8.969154 214 190 145
-1.416374 -0.418068 8.886999 168 145 102
-1.075281 0.229348 6.739678 85 104 47
-1.070403 0.319648 6.718204 114 120 85
-1.069403 0.376531 6.697542 30 32 22
-1.605266 -3.471528 10.150456 250 247 242
-1.455476 -1.616135 9.193649 131 113 85
-1.453192 -1.493495 9.184832 97 79 43
-1.453919 -1.317996 9.178232 146 132 95
-1.453101 -1.125701 9.170367 47 43 40
-1.454576 -0.995218 9.175549 45 40 36
-1.448252 -0.931398 9.131405 37 33 29
-1.422270 -0.674680 8.957414 106 80 52
-1.408250 -0.365447 8.868730 73 49 15
-1.075351 0.202279 6.760041 90 109 60
-1.069087 0.256424 6.740768 44 50 22
-1.067787 0.332052 6.723786 166 176 113
-1.595581 -3.430667 10.154049 250 247 242
-1.597244 -3.320427 10.158518 246 243 236
-1.595951 -3.054485 10.152075 250 245 239
-1.597723 -2.988090 10.142610 251 246 240
-1.485489 -2.311098 9.424773 111 114 121
-1.549528 -2.076342 9.813673 158 131 96
-1.436975 -0.792595 9.092752 116 90 71
-1.403918 -0.398341 8.871360 172 147 107
-1.064040 0.286915 6.719102 134 156 88
-1.049852 0.434516 6.633455 100 120 27
-1.048904 0.448581 6.627466 77 85 30
-1.046807 0.484022 6.616529 22 27 2
-1.043313 0.490223 6.609684 30 40 12
-1.040743 0.623380 6.578640 103 106 52
-1.039471 0.694414 6.577757 179 188 76
-1.545200 -2.180993 9.828088 109 109 115
-1.447130 -1.644724 9.196682 123 101 64
-1.445794 -1.162319 9.180715 54 54 50
-1.440817 -0.973938 9.183265 48 43 37
-1.390000 -0.207125 8.831408 234 210 168
-1.421749 -0.138973 9.022976 195 177 148
-1.060816 0.237900 6.738554 138 151 82
-1.052621 0.405589 6.665420 176 186 116
-1.036735 0.680382 6.578166 47 56 14
-1.037275 0.741689 6.575539 200 190 158
-1.533271 -2.206670 9.816941 111 110 116
-1.441643 -1.832236 9.207490 170 142 99
-1.442769 -1.773111 9.206777 201 174 131
-1.441288 -1.633362 9.197664 220 195 157
-1.437501 -1.458975 9.186931 223 199 166
-1.439856 -1.060954 9.183489 53 51 39
-1.440479 -1.034399 9.184637 50 45 39
-1.440343 -1.005267 9.181967 50 45 39
-1.434217 -0.943124 9.144120 44 37 32
-1.406103 -0.705539 8.970951 226 199 152
-1.400201 -0.562199 8.932685 83 59 29
-1.392443 -0.457528 8.872194 205 178 131
-1.388870 -0.282152 8.850718 79 127 197
-1.386468 -0.272832 8.851883 72 120 188
-1.242558 -0.005395 7.929589 109 126 44
-1.033781 0.573627 6.584987 151 170 109
-1.020610 0.788292 6.508811 210 191 159
-1.574079 -2.961809 10.118012 252 247 241
-1.482550 -2.243208 9.503756 109 114 117
-1.432975 -1.282115 9.170441 54 52 45
-1.431507 -1.124810 9.180979 51 47 44
-1.427508 -0.918318 9.143961 36 32 27
-1.395473 -0.579994 8.941307 242 225 181
-1.383485 -0.220858 8.830203 227 209 168
-1.050180 0.216900 6.728048 119 141 82
-1.029760 0.629969 6.580606 101 110 13
-1.026382 0.667720 6.583879 121 139 39
-1.030003 0.708525 6.583566 66 66 5
-1.029637 0.784303 6.589651 209 189 157
-1.573248 -3.379591 10.168760 245 242 237
-1.525544 -2.055790 9.828867 174 151 109
-1.427811 -1.695412 9.206853 145 129 100
-1.426236 -1.404092 9.187165 102 78 56
-1.427107 -1.106138 9.183124 47 43 42
-1.431376 -0.982549 9.190426 46 42 35
-1.389473 -0.532537 8.924243 79 49 33
-1.376665 -0.321151 8.838702 109 114 150
-1.378715 -0.271828 8.853376 67 101 156
-1.374753 -0.252915 8.840945 79 116 160
-1.030519 0.455330 6.614162 54 59 18
-1.025921 0.518872 6.583030 115 122 91
-1.025638 0.634732 6.582135 167 174 96
-1.026100 0.766140 6.586191 213 192 168
-1.575535 -2.919222 10.194065 250 245 239
-1.421067 -1.857304 9.215801 191 167 121
-1.423964 -1.751121 9.211074 161 142 100
-1.425138 -1.551897 9.191151 193 176 145
-1.424440 -1.451470 9.185458 251 234 200
-1.420315 -1.071594 9.184646 51 48 39
-1.426213 -1.041988 9.187818 45 42 33
-1.421704 -1.010654 9.188675 45 42 35
-1.413778 -0.836377 9.122974 61 50 39
-1.394039 -0.702808 8.986107 237 210 165
-1.393741 -0.673117 8.989064 137 111 78
-1.373757 -0.227487 8.837042 230 211 181
-1.022104 0.673849 6.583784 116 126 58
-1.021743 0.724501 6.585910 96 95 51
-1.023751 0.761169 6.583606 206 189 161
-1.563237 -3.336529 10.174935 248 241 235
-1.555952 -2.776088 10.133998 152 173 177
-1.481336 -2.175723 9.601469 109 108 114
-1.417220 -1.523804 9.194952 240 223 193
-1.417433 -1.431094 9.190585 244 229 201
-1.417200 -1.377289 9.187816 182 159 116
-1.413667 -1.254356 9.165610 51 46 42
-1.408909 -0.868952 9.131826 245 227 173
-1.382271 -0.595294 8.945210 115 82 46
-1.366623 -0.405500 8.846287 194 170 125
-1.365182 -0.381783 8.843724 187 164 120
-1.041471 0.330774 6.731588 123 139 102
-1.024519 0.468546 6.606082 33 40 6
-1.019287 0.485690 6.592092 40 52 8
-1.019257 0.505352 6.584189 145 155 65
-1.018239 0.655833 6.585001 101 117 56
-1.018714 0.752435 6.583617 204 189 158
-1.509757 -2.187267 9.840076 104 103 109
-1.509679 -2.121207 9.837198 186 160 123
-1.414946 -1.612421 9.205267 109 93 61
-1.409905 -1.293236 9.176597 60 58 49
-1.412513 -1.087053 9.191953 45 43 36
-1.411427 -0.942429 9.157925 39 35 26
-1.385974 -0.727080 9.013294 248 224 181
-1.036345 0.233115 6.730721 53 65 10
-1.028128 0.365197 6.684031 108 115 72
