ply
format ascii 1.0
element vertex 1202
property float x
property float y
property float z
property uchar red
property uchar green
property uchar blue
end_header
-0.861393 -3.842108 9.870266 188 173 144
-0.859637 -3.743635 9.870155 204 189 161
-0.860852 -3.720542 9.865589 199 184 153
-0.858752 -3.607120 9.884933 192 174 150
-0.861931 -3.336193 9.895631 159 145 119
-0.860910 -3.035539 9.862441 194 175 143
-0.836955 -2.171361 9.608414 177 153 111
-0.793574 -1.561526 9.095669 172 150 112
-0.773571 -1.126449 8.898821 182 160 121
-0.766358 -0.755410 8.745422 221 189 140
-0.669359 -0.013842 7.686035 141 150 67
-0.573079 0.204526 6.562723 28 40 3
-0.568283 0.286057 6.531918 183 197 118
-0.567019 0.566679 6.498081 70 89 25
-0.568748 0.700550 6.517654 53 48 24
-0.861977 -3.564611 9.905613 195 178 156
-0.831491 -2.413738 9.601831 177 158 116
-0.835116 -2.311900 9.614407 175 155 120
-0.787316 -1.650168 9.091374 163 140 122
-0.783794 -1.482804 9.068737 233 211 164
-0.764083 -0.942111 8.826129 71 45 22
-0.757961 -0.720673 8.742043 227 195 148
-0.564041 0.354187 6.520794 69 84 42
-0.566104 0.390240 6.513068 111 131 70
-0.562186 0.538591 6.487160 110 122 48
-0.850666 -3.519543 9.900758 141 117 120
-0.849351 -3.264951 9.894876 209 195 166
-0.846449 -2.707409 9.870834 174 158 125
-0.848686 -2.650882 9.878749 210 191 162
-0.826975 -2.342810 9.610544 126 106 69
-0.826753 -2.219248 9.607028 153 127 90
-0.780457 -1.720627 9.086872 93 80 49
-0.765127 -1.247063 8.913536 226 204 158
-0.767253 -1.126442 8.898444 176 157 115
-0.752012 -0.783344 8.749938 233 204 160
-0.753387 -0.432987 8.735078 87 75 54
-0.753415 -0.353196 8.754317 109 155 209
-0.559469 0.519801 6.484044 205 197 64
-0.557537 0.555301 6.492033 98 119 45
-0.560112 0.640588 6.501091 134 140 83
-0.563959 0.781486 6.561117 231 210 168
-0.846549 -3.802285 9.872862 212 197 166
-0.844222 -3.404825 9.892416 189 176 144
-0.842163 -2.841730 9.869746 172 158 124
-0.844146 -2.810245 9.865899 206 186 158
-0.846870 -2.593448 9.877995 217 199 165
-0.822662 -2.422879 9.591445 191 172 130
-0.820377 -2.006368 9.600911 223 205 159
-0.772700 -1.368290 8.980844 237 212 168
-0.761129 -1.263068 8.918806 231 209 165
-0.756769 -1.000064 8.861588 95 79 56
-0.751003 -0.399257 8.794559 117 103 73
-0.560043 0.279394 6.533111 99 136 33
-0.556887 0.588675 6.501532 163 182 87
-0.840716 -3.599894 9.882173 193 176 148
-0.842097 -3.454691 9.895518 183 171 147
-0.838450 -3.303387 9.896906 171 160 136
-0.841478 -3.095280 9.878343 198 178 145
-0.836313 -2.979066 9.866320 193 174 142
-0.837612 -2.957305 9.863318 207 188 156
-0.812043 -2.449766 9.571197 183 161 129
-0.817736 -2.328445 9.602182 158 136 98
-0.768925 -1.826354 9.093350 145 130 90
-0.768789 -1.771473 9.088778 155 135 103
-0.769859 -1.610313 9.100033 183 160 134
-0.767579 -1.406518 9.019461 242 221 178
-0.753429 -1.010343 8.863983 71 58 39
-0.751070 -0.942922 8.829710 177 150 118
-0.740945 -0.855930 8.766431 242 217 177
-0.742133 -0.733579 8.745026 214 187 141
-0.743220 -0.686043 8.744832 221 189 139
-0.742897 -0.636066 8.729846 217 193 145
-0.738096 -0.590548 8.724088 91 75 52
-0.745283 -0.448688 8.779823 85 62 39
-0.649842 0.140313 7.669877 35 43 3
-0.551987 0.629354 6.503997 85 104 19
-0.555568 0.786502 6.556791 226 203 162
-0.808204 -2.256598 9.593695 185 166 126
-0.811495 -2.138135 9.604920 179 157 116
-0.766150 -1.538491 9.092961 221 199 151
-0.759687 -1.394526 9.011467 236 215 173
-0.748980 -1.275805 8.925636 235 211 172
-0.751101 -1.209442 8.908820 231 208 165
-0.738104 -0.797801 8.748638 241 215 172
-0.735676 -0.752609 8.747484 237 213 169
-0.734735 -0.515096 8.752247 228 208 163
-0.643698 -0.037826 7.662162 130 136 44
-0.553606 0.202381 6.561127 90 107 25
-0.550521 0.230290 6.548153 88 104 12
-0.544556 0.477845 6.485306 88 98 16
-0.547743 0.554227 6.491250 79 89 38
-0.551198 0.730159 6.549846 123 116 81
-0.823822 -3.761507 9.873524 204 189 158
-0.828115 -3.646056 9.870944 188 173 141
-0.824086 -3.622036 9.874849 190 172 140
-0.828452 -3.515545 9.885580 192 165 166
-0.827679 -3.067065 9.870145 209 189 156
-0.823129 -2.928526 9.875624 205 184 154
-0.826625 -2.900393 9.873895 208 191 163
-0.824738 -2.785872 9.873351 208 191 159
-0.801324 -2.229952 9.597601 168 141 102
-0.745593 -1.155155 8.903583 226 207 163
-0.731955 -0.828482 8.756182 238 214 177
-0.733419 -0.488160 8.765640 160 140 103
-0.543005 0.444382 6.492623 108 134 72
-0.544398 0.651745 6.507274 114 128 52
-0.550374 0.778753 6.561440 226 204 162
-0.820659 -3.132359 9.883231 207 192 158
-0.816912 -3.002599 9.864128 214 195 164
-0.823070 -2.715369 9.876081 183 167 134
-0.821223 -2.677004 9.878595 182 163 135
-0.795322 -2.413429 9.576032 186 167 124
-0.797536 -2.375385 9.591394 173 151 112
-0.754719 -1.905176 9.094271 115 104 77
-0.753725 -1.668021 9.099152 50 41 32
-0.750507 -1.425852 9.035264 244 223 177
-0.725485 -0.766995 8.746828 222 199 157
-0.729183 -0.717120 8.750297 213 182 135
-0.545153 0.180151 6.570012 90 106 18
-0.543178 0.313567 6.525595 60 77 10
-0.540949 0.373009 6.513948 45 48 16
-0.540075 0.479662 6.484316 181 192 63
-0.537779 0.495585 6.481408 179 175 33
-0.539690 0.541595 6.487777 99 107 13
-0.531779 0.790785 6.441713 213 189 151
-0.818741 -3.460684 9.898859 209 193 165
-0.812555 -3.175157 9.893071 190 175 142
-0.790843 -2.297068 9.598187 178 154 114
-0.748831 -1.795099 9.094075 147 128 103
-0.720757 -0.546317 8.755808 37 27 18
-0.722545 -0.459448 8.768549 123 102 65
-0.538044 0.335927 6.521437 109 128 64
-0.532461 0.787613 6.457225 222 198 160
-0.806992 -3.698033 9.868484 215 201 174
-0.806639 -3.603270 9.877513 218 205 178
-0.805853 -3.554286 9.879669 218 207 179
-0.808470 -3.409813 9.899528 192 178 150
-0.808997 -3.380325 9.900353 189 173 147
-0.808952 -3.075898 9.875151 195 175 143
-0.804355 -3.044478 9.867806 210 190 157
-0.807584 -2.804175 9.871390 199 184 149
-0.809932 -2.783775 9.873883 180 161 130
-0.809311 -2.619906 9.880260 191 175 150
-0.742285 -1.778666 9.094151 155 133 99
-0.745868 -1.563459 9.098637 80 58 38
-0.744019 -1.525682 9.093108 87 64 41
-0.729029 -1.073610 8.899652 112 94 68
-0.727979 -1.041869 8.882071 99 85 55
-0.724646 -0.938774 8.841142 108 81 57
-0.719315 -0.881945 8.815818 211 186 141
-0.718596 -0.826868 8.758168 206 180 138
-0.716360 -0.800336 8.750560 215 186 144
-0.715176 -0.752687 8.755552 239 218 174
-0.715039 -0.579966 8.766569 202 181 143
-0.712519 -0.295579 8.725307 99 123 159
-0.538432 0.203626 6.561127 74 82 36
-0.531420 0.398736 6.504255 180 186 74
-0.535115 0.693035 6.525441 97 104 72
-0.803984 -3.315489 9.899577 191 180 151
-0.803005 -3.068580 9.877060 202 182 149
-0.801497 -3.037188 9.870508 197 176 145
-0.783198 -2.397399 9.590261 202 184 141
-0.782517 -2.340704 9.591148 198 175 139
-0.781738 -2.183752 9.602600 218 194 148
-0.738975 -1.850084 9.102047 177 150 112
-0.736174 -1.724534 9.092171 96 78 54
-0.740358 -1.700889 9.091840 153 138 107
-0.533110 0.182145 6.569808 88 105 35
-0.527457 0.586010 6.504543 172 189 75
-0.527684 0.622399 6.509387 87 105 47
-0.530664 0.725769 6.541192 123 121 69
-0.797719 -3.171254 9.895601 170 154 122
-0.799174 -2.653788 9.880993 196 180 154
-0.769461 -2.108057 9.593064 189 165 125
-0.734346 -1.936670 9.092432 243 222 183
-0.721206 -1.316544 8.963422 203 176 151
-0.718514 -0.988289 8.882045 85 74 48
-0.714897 -0.909066 8.860145 239 213 165
-0.526217 0.303836 6.526132 36 43 7
-0.527144 0.363834 6.511197 34 48 16
-0.527814 0.669111 6.524247 42 54 7
-0.793074 -3.570183 9.875480 196 181 156
-0.792915 -3.223452 9.903295 162 146 120
-0.790339 -2.941483 9.876021 218 199 168
-0.790235 -2.861248 9.871761 182 165 132
-0.790674 -2.720423 9.884397 188 170 139
-0.788971 -2.666194 9.887496 214 193 167
-0.789008 -2.538353 9.873112 191 174 147
-0.767703 -2.208772 9.604229 217 194 148
-0.729931 -1.808928 9.105767 206 178 146
-0.731509 -1.577872 9.103319 201 180 143
-0.707967 -0.932669 8.875492 155 122 95
-0.706217 -0.831852 8.818010 245 223 181
-0.704971 -0.695976 8.780334 149 122 73
-0.699514 -0.636729 8.767833 216 189 144
-0.699069 -0.404119 8.762921 206 180 138
-0.696645 -0.347686 8.739454 118 156 206
-0.697953 -0.303661 8.714795 95 128 171
-0.529202 0.179441 6.570422 76 94 17
-0.520005 0.416262 6.500350 205 197 62
-0.521652 0.514752 6.484389 98 107 29
-0.520807 0.545993 6.494128 79 92 20
-0.520776 0.571432 6.504498 24 40 3
-0.524910 0.725411 6.540679 161 162 93
-0.786695 -3.630214 9.879274 191 177 150
-0.785540 -3.295137 9.902842 177 161 134
-0.783512 -2.751406 9.880097 190 175 142
-0.786777 -2.696517 9.884002 213 197 165
-0.761242 -2.371123 9.601078 184 161 120
-0.724577 -1.766761 9.097713 77 60 31
-0.725282 -1.549933 9.098156 165 145 99
-0.715916 -1.380203 9.003393 102 83 69
-0.711973 -1.359479 8.991744 225 201 167
-0.711320 -1.241042 8.937496 121 102 61
-0.704186 -0.886771 8.878424 229 198 152
-0.701718 -0.742546 8.795151 234 210 162
-0.696557 -0.335858 8.730170 129 167 215
-0.519567 0.166152 6.575851 79 101 33
-0.515049 0.439732 6.491899 194 204 76
-0.782636 -3.453419 9.895880 202 187 156
-0.783620 -3.420444 9.903133 203 187 161
-0.779085 -3.135743 9.896995 208 189 156
-0.776867 -3.036916 9.875647 200 180 147
-0.777439 -2.957498 9.873290 192 173 143
-0.780218 -2.899656 9.871964 187 169 135
-0.775298 -2.803931 9.872940 195 176 143
-0.754143 -2.114180 9.594435 218 195 154
-0.721812 -1.669802 9.110137 58 51 33
-0.720116 -1.616714 9.111965 195 173 141
-0.700706 -0.814761 8.875574 229 205 163
-0.688244 -0.372083 8.755363 142 153 179
-0.514711 0.194657 6.561538 105 125 57
-0.514013 0.290646 6.533424 102 113 54
-0.511624 0.476496 6.484551 158 173 58
-0.512870 0.498747 6.486580 66 60 15
-0.515154 0.597773 6.507406 122 134 63
-0.515622 0.725000 6.541830 82 77 31
-0.772092 -3.824840 9.883850 178 163 131
-0.771391 -3.786659 9.881996 181 167 139
-0.773519 -3.667227 9.875311 195 181 151
-0.770214 -3.116916 9.890808 199 179 146
-0.771871 -2.840250 9.872096 204 185 155
-0.771276 -2.783369 9.874987 189 168 140
-0.750441 -2.228045 9.603595 198 175 132
-0.752512 -2.164432 9.605636 188 164 120
-0.711109 -1.457812 9.061186 96 78 49
-0.702384 -1.239601 8.938135 167 147 101
-0.697190 -1.214350 8.931313 146 121 86
-0.694107 -1.008054 8.876491 77 61 46
-0.684902 -0.560690 8.779782 54 38 11
-0.685043 -0.491602 8.776654 206 183 136
-0.682747 -0.304155 8.717606 88 116 156
-0.511907 0.236405 6.546700 139 161 93
-0.508838 0.463684 6.485305 159 171 57
-0.504087 0.783536 6.452961 212 189 149
-0.770020 -3.698147 9.875833 200 186 156
-0.766787 -3.677372 9.874276 182 167 136
-0.767493 -3.079500 9.881082 182 163 132
-0.767270 -3.015909 9.868990 210 192 157
-0.765806 -2.655192 9.890381 186 167 135
-0.745210 -2.402502 9.594906 196 175 132
-0.709682 -1.948994 9.140828 208 181 139
-0.711087 -1.767542 9.100924 82 65 44
-0.697076 -1.321350 8.966971 182 162 123
-0.508742 0.325319 6.522406 131 152 53
-0.505714 0.398216 6.500479 97 110 38
-0.503935 0.427392 6.495977 92 99 17
-0.761474 -3.612890 9.869199 203 191 159
-0.761191 -3.195111 9.903555 185 169 138
-0.759439 -2.728201 9.885159 206 187 155
-0.761351 -2.609954 9.883458 181 162 130
-0.743113 -2.249362 9.607745 221 198 156
-0.736547 -2.044445 9.554424 196 172 128
-0.700251 -1.852637 9.111197 227 196 153
-0.688013 -1.184587 8.924688 188 163 126
-0.687911 -0.870494 8.918113 247 216 173
-0.675643 -0.515375 8.778850 188 170 133
-0.676518 -0.471006 8.773316 161 146 108
-0.500240 0.451404 6.488964 113 119 5
-0.502461 0.598683 6.510971 47 60 5
-0.753591 -3.647520 9.877576 195 181 147
-0.755675 -3.417917 9.896453 179 166 136
-0.754588 -2.924049 9.880268 202 185 156
-0.754784 -2.785293 9.880165 198 179 146
-0.755641 -2.767350 9.881139 193 175 139
-0.732019 -2.271502 9.606730 207 184 143
-0.733982 -2.118066 9.604681 204 183 141
-0.735389 -2.096546 9.587553 189 167 126
-0.694910 -1.474677 9.070774 144 128 100
-0.678990 -1.036515 8.874352 53 43 23
-0.685353 -0.922835 8.921453 151 124 94
-0.679989 -0.727963 8.882202 237 214 162
-0.670207 -0.316450 8.725476 94 150 205
-0.587376 0.095950 7.655103 135 151 60
-0.502185 0.261283 6.542539 87 100 66
-0.499199 0.316839 6.525301 106 128 44
-0.501623 0.346672 6.517431 138 149 88
-0.497166 0.570413 6.508150 69 84 20
-0.500633 0.649289 6.518786 106 121 51
-0.500759 0.675902 6.533808 49 69 2
-0.498361 0.718962 6.540993 146 145 96
-0.748759 -3.732511 9.880993 216 202 173
-0.753898 -3.376349 9.892767 185 174 152
-0.751552 -3.281748 9.906006 164 154 126
-0.750307 -3.054655 9.877902 218 202 169
-0.750228 -2.674654 9.888694 211 190 159
-0.729537 -2.301665 9.600527 202 179 137
-0.726712 -2.141094 9.607181 206 179 136
-0.694871 -1.622446 9.117208 191 165 136
-0.676522 -1.069775 8.894064 102 84 59
-0.667345 -0.643267 8.778778 223 197 148
-0.684491 -0.192314 9.044054 242 219 163
-0.493906 0.492326 6.489865 97 109 20
-0.743809 -3.582806 9.882531 177 163 136
-0.743355 -3.227206 9.909668 193 179 144
-0.743048 -3.118319 9.891301 197 178 144
-0.739861 -3.002543 9.868327 196 177 146
-0.740770 -2.862994 9.874805 187 168 137
-0.674646 -1.140347 8.914090 150 135 99
-0.670034 -0.849283 8.915789 242 217 178
-0.574806 0.051607 7.648541 140 152 78
-0.491585 0.185893 6.561119 72 89 39
-0.493239 0.239095 6.548456 111 132 64
-0.487898 0.308223 6.526307 6 19 0
-0.491617 0.516849 6.495750 71 88 24
-0.490118 0.541853 6.499166 73 85 18
-0.737472 -3.818762 9.881719 193 179 151
-0.738736 -3.677892 9.877732 183 166 136
-0.739571 -3.643417 9.878434 183 169 135
-0.737541 -3.503209 9.893302 178 160 131
-0.739995 -3.333884 9.893409 176 166 140
-0.740906 -3.174796 9.901397 195 179 145
-0.735342 -3.029150 9.870427 196 178 147
-0.736468 -2.965717 9.876270 218 197 170
-0.740211 -2.614256 9.886643 176 160 127
-0.735704 -2.512354 9.867353 179 157 117
-0.678539 -1.820212 9.127282 144 115 96
-0.679489 -1.709756 9.101599 131 115 78
-0.682172 -1.533842 9.095160 100 79 54
-0.671593 -1.339772 8.978925 165 142 122
-0.667125 -1.115831 8.906932 135 122 88
-0.665681 -0.798026 8.901551 211 182 140
-0.659383 -0.688856 8.846891 181 153 105
-0.657080 -0.553831 8.783333 83 57 38
-0.653158 -0.437022 8.768007 113 98 72
-0.572516 0.092255 7.666815 130 141 88
-0.487793 0.585160 6.510218 99 119 46
-0.486757 0.619621 6.513950 56 57 27
-0.488519 0.686849 6.537658 139 158 91
-0.731476 -2.889298 9.872962 215 196 163
-0.711566 -2.191430 9.608889 196 173 129
-0.674966 -1.755095 9.098255 112 87 67
-0.673329 -1.594184 9.115394 118 103 77
-0.661883 -0.846075 8.916315 255 232 187
-0.649980 -0.398508 8.762294 172 150 106
-0.484143 0.298031 6.531183 92 105 58
-0.480688 0.504782 6.495746 183 189 82
-0.474847 0.780881 6.426510 221 198 162
-0.724815 -3.292038 9.904529 199 185 158
-0.724954 -3.156198 9.902603 192 176 142
-0.721592 -2.942730 9.877063 207 191 162
-0.723513 -2.919979 9.881190 202 183 150
-0.725445 -2.793622 9.880091 210 191 158
-0.724659 -2.738820 9.886482 199 182 154
-0.674268 -2.062702 9.212266 194 169 126
-0.671909 -1.997929 9.151297 198 175 133
-0.667220 -1.919193 9.117354 92 81 43
-0.660824 -1.439991 9.041856 73 54 27
-0.660447 -1.321021 8.968684 200 179 150
-0.655778 -1.237056 8.942516 129 107 70
-0.655691 -0.998448 8.924054 68 55 38
-0.656860 -0.986060 8.932360 60 47 30
-0.544222 -0.064103 7.410717 33 40 2
-0.476341 0.457849 6.492752 85 95 18
-0.478611 0.646271 6.519204 27 37 13
-0.481328 0.664681 6.532102 79 101 25
-0.718014 -3.823570 9.875090 198 185 152
-0.720852 -2.847221 9.874526 211 192 159
-0.723343 -2.591014 9.884585 226 207 178
-0.718768 -2.458742 9.832606 184 164 122
-0.700931 -2.302990 9.600934 155 135 101
-0.662789 -1.655491 9.119052 135 117 92
-0.665977 -1.595206 9.115574 116 100 76
-0.664753 -1.555313 9.105344 123 105 76
-0.665143 -1.540954 9.101254 86 67 42
-0.651445 -1.284407 8.952893 239 220 193
-0.651130 -1.147437 8.918563 223 201 155
-0.640635 -0.632258 8.799476 201 173 126
-0.480493 0.757280 6.568648 198 176 134
-0.711891 -3.671501 9.873992 189 174 140
-0.712840 -3.542113 9.878649 198 194 159
-0.712625 -3.466564 9.894627 183 171 138
-0.713799 -3.431718 9.898500 186 176 147
-0.713604 -3.416001 9.895103 193 181 150
-0.710145 -3.353267 9.893584 207 192 161
-0.718025 -3.205369 9.913613 172 155 125
-0.713666 -3.183545 9.910375 190 173 145
-0.714877 -3.133435 9.903303 177 157 125
-0.717162 -2.684371 9.888631 185 168 141
-0.713092 -2.655633 9.891796 197 177 152
-0.655986 -1.748234 9.105529 209 182 151
-0.656964 -1.578651 9.116458 88 64 36
-0.641579 -0.757347 8.897301 219 196 154
-0.634956 -0.600352 8.795485 201 177 129
-0.634141 -0.356274 8.749763 128 157 196
-0.632641 -0.323525 8.734287 122 160 214
-0.628108 -0.299011 8.728258 90 118 159
-0.556886 0.014905 7.662352 126 138 49
-0.472827 0.357325 6.509243 140 159 73
-0.466818 0.447846 6.495264 57 69 15
-0.471025 0.513299 6.498172 40 47 5
-0.469095 0.586013 6.512414 136 152 76
-0.709518 -3.330137 9.895971 171 157 128
-0.708984 -3.264289 9.918721 171 156 127
-0.707771 -2.989687 9.877321 219 202 172
-0.708241 -2.937557 9.879485 194 181 149
-0.688850 -2.354251 9.605279 154 132 93
-0.689880 -2.171946 9.612369 194 170 124
-0.653648 -1.816705 9.134416 161 136 107
-0.651811 -1.771846 9.110080 144 129 88
-0.649668 -1.460164 9.061216 102 82 48
-0.647760 -1.381068 9.013091 45 36 24
-0.643612 -1.255686 8.949596 79 59 42
-0.643329 -1.210355 8.937532 180 158 121
-0.643042 -0.909707 8.938704 77 55 32
-0.630328 -0.499470 8.777683 235 214 177
-0.628308 -0.472821 8.775901 156 141 118
-0.626783 -0.430880 8.767328 155 140 113
-0.471899 0.720474 6.540983 68 68 44
-0.699625 -3.769763 9.872151 165 154 122
-0.701768 -3.727814 9.873019 197 184 151
-0.704388 -3.070303 9.885643 213 195 164
-0.702085 -2.865776 9.875817 204 194 160
-0.699585 -2.523755 9.869711 211 191 157
-0.655806 -2.052987 9.198753 208 185 144
-0.653848 -2.021635 9.190455 217 194 153
-0.652621 -2.004702 9.169374 193 171 132
-0.649488 -1.861427 9.129874 222 190 164
-0.646941 -1.712611 9.112970 210 188 139
-0.625710 -0.514121 8.779107 210 186 137
-0.625267 -0.366677 8.753849 142 138 146
-0.463787 0.327590 6.512479 81 99 41
-0.465882 0.782824 6.566946 221 199 162
-0.697066 -3.584991 9.874584 201 187 157
-0.694471 -3.379443 9.891669 177 165 134
-0.693941 -2.458767 9.842341 201 180 137
-0.637325 -1.413151 9.029460 90 71 47
-0.628369 -0.878769 8.938357 237 213 174
-0.626980 -0.787989 8.904869 200 176 126
-0.462510 0.263521 6.547600 93 105 71
-0.458195 0.620122 6.519129 192 199 106
-0.690307 -3.394677 9.894182 210 194 163
-0.691991 -3.035441 9.878772 214 194 164
-0.693287 -2.815827 9.878127 180 164 131
-0.693596 -2.626371 9.884802 207 188 158
-0.669580 -2.245932 9.612221 164 141 100
-0.637180 -1.951610 9.114678 182 159 118
-0.637001 -1.621940 9.125513 51 36 21
-0.638244 -1.588278 9.115080 54 36 25
-0.637841 -1.543526 9.102826 51 28 19
-0.618835 -1.047086 8.885406 119 99 72
-0.612109 -0.413869 8.768056 57 42 29
-0.612765 -0.325280 8.735377 110 167 218
-0.456343 0.182632 6.545105 74 83 55
-0.455514 0.485112 6.496963 103 115 42
-0.454018 0.565198 6.510220 129 150 48
-0.454597 0.642568 6.524440 109 127 75
-0.685157 -3.579390 9.876730 197 182 154
-0.688957 -3.233531 9.912208 180 161 136
-0.681364 -2.911052 9.873909 189 173 143
-0.683247 -2.747342 9.884011 207 188 159
-0.666552 -2.361897 9.604430 214 191 148
-0.631891 -1.750429 9.117066 83 63 46
-0.630796 -1.491801 9.084609 230 213 181
-0.626058 -1.374594 9.003907 44 35 28
-0.620393 -1.243614 8.962119 181 157 117
-0.617627 -1.077002 8.881451 208 186 143
-0.615661 -0.829747 8.910916 165 139 109
-0.611969 -0.586076 8.790971 192 165 121
-0.609600 -0.540264 8.784999 214 187 157
-0.679016 -3.707262 9.874772 204 191 156
-0.682247 -3.433194 9.898077 166 153 123
-0.680571 -3.136759 9.901760 203 183 154
-0.679063 -3.014031 9.877651 170 155 122
-0.679693 -2.893847 9.873639 182 166 135
-0.674280 -2.762286 9.883842 202 179 156
-0.679567 -2.631828 9.887546 202 186 157
-0.658867 -2.188819 9.614395 174 146 108
-0.621555 -1.415541 9.018195 79 60 36
-0.614395 -1.205748 8.946022 169 147 111
-0.610621 -0.766874 8.910070 87 62 39
-0.605434 -0.458047 8.772417 187 173 144
-0.448601 0.538040 6.504743 81 106 34
-0.449867 0.690511 6.534651 129 143 79
-0.449826 0.762098 6.530520 214 195 156
-0.444182 0.782009 6.458785 225 204 165
-0.672347 -3.655338 9.875461 200 185 153
-0.673260 -3.622797 9.874804 186 171 137
-0.671628 -2.967444 9.877337 172 153 120
-0.673057 -2.791055 9.882860 199 179 147
-0.672530 -2.737381 9.887808 225 208 173
-0.675189 -2.706235 9.884421 190 174 146
-0.625579 -2.027735 9.189704 175 153 114
-0.623897 -1.984302 9.147023 194 171 128
-0.623648 -1.855255 9.133080 112 89 67
-0.622480 -1.621039 9.122870 202 181 134
-0.621174 -1.598953 9.119924 185 164 114
-0.617367 -1.519693 9.095260 209 192 156
-0.608745 -1.182050 8.936652 200 178 139
-0.607158 -1.093192 8.884796 215 188 147
-0.523151 0.033055 7.658669 107 121 48
-0.522127 0.072497 7.657655 106 127 61
-0.444968 0.310491 6.522146 96 108 66
-0.444237 0.316238 6.520432 86 101 59
-0.442950 0.510630 6.503145 144 163 98
-0.444501 0.637613 6.523798 104 117 56
-0.662609 -3.548140 9.879390 173 170 134
-0.666673 -3.513644 9.890400 191 170 163
-0.670562 -3.403805 9.894098 170 159 134
-0.665296 -3.121651 9.890822 204 184 151
-0.665362 -2.844293 9.878028 208 187 162
-0.665361 -2.676823 9.891198 189 169 144
-0.669773 -2.591835 9.886280 172 154 124
-0.667746 -2.501821 9.869841 187 165 123
-0.648032 -2.275928 9.611391 200 173 132
-0.613549 -1.916345 9.108397 183 160 113
-0.616726 -1.806057 9.137491 142 112 88
-0.617843 -1.587801 9.115180 214 192 143
-0.603179 -1.155393 8.931673 101 74 49
-0.605660 -1.029887 8.933389 188 165 125
-0.602267 -0.920158 8.958579 101 79 46
-0.593614 -0.405493 8.766721 164 143 107
-0.443390 0.227962 6.535311 27 32 3
-0.438269 0.474625 6.501800 103 118 50
-0.439095 0.577262 6.513012 44 58 9
-0.434163 0.790025 6.429597 217 193 157
-0.661076 -3.782754 9.874006 204 187 160
-0.664600 -3.484145 9.893740 189 181 159
-0.661564 -3.260968 9.916887 207 191 157
-0.663587 -2.631343 9.888405 182 167 141
-0.660064 -2.464067 9.861856 155 132 90
-0.643547 -2.362720 9.606782 214 193 150
-0.641899 -2.249947 9.616252 174 156 113
-0.609751 -1.954033 9.127755 204 177 133
-0.601227 -0.685354 8.972672 223 200 152
-0.582869 -0.325685 8.738943 110 164 224
-0.584589 -0.277742 8.726626 217 203 182
-0.437364 0.196778 6.531026 46 59 22
-0.436241 0.262750 6.542031 93 103 74
-0.435747 0.298733 6.528919 75 78 51
-0.437274 0.342457 6.507791 70 86 29
-0.436537 0.428182 6.507822 162 183 119
-0.653852 -3.692837 9.876144 189 173 139
-0.654991 -3.362840 9.898846 118 105 100
-0.656754 -3.339695 9.898266 201 183 159
-0.654287 -3.297919 9.906648 183 171 147
-0.659348 -3.213799 9.915648 186 169 141
-0.654503 -3.053064 9.878353 208 191 159
-0.658200 -3.004229 9.874365 211 191 165
-0.636047 -2.348965 9.611638 139 116 75
-0.602726 -1.721760 9.122214 212 192 155
-0.603289 -1.585318 9.117019 212 190 148
-0.598529 -1.433294 9.022588 86 69 41
-0.592544 -0.949884 8.962333 170 146 104
-0.595228 -0.698079 8.949175 227 205 158
-0.576724 -0.372829 8.768789 99 87 82
-0.432126 0.407709 6.508050 56 67 29
-0.434146 0.719883 6.535577 62 56 38
-0.645649 -3.622963 9.875875 187 176 140
-0.653832 -2.685656 9.891248 207 186 160
-0.601805 -2.001654 9.158095 206 183 139
-0.597489 -1.525147 9.094827 138 123 94
-0.590629 -1.229890 8.966189 211 190 147
-0.584829 -1.048311 8.907590 218 196 155
-0.590331 -0.856959 8.932451 109 85 47
-0.577531 -0.545657 8.783614 240 217 177
-0.577934 -0.405552 8.768960 158 132 84
-0.425861 0.457720 6.504507 60 75 37
-0.428011 0.568877 6.513233 59 73 33
-0.428383 0.635910 6.524801 69 87 14
-0.642030 -3.848877 9.882790 191 180 148
-0.641654 -2.909402 9.878777 198 180 157
-0.641772 -2.890610 9.879374 178 158 131
-0.646091 -2.527265 9.879010 198 179 140
-0.588628 -1.344989 8.998022 60 46 30
-0.585359 -1.024932 8.944878 114 96 59
-0.583388 -0.755542 8.919633 155 130 100
-0.572682 -0.607531 8.790098 231 206 159
-0.569048 -0.270081 8.726787 229 213 169
-0.498778 0.130332 7.649582 49 59 11
-0.426466 0.232597 6.530825 22 28 4
-0.422278 0.354745 6.504541 57 80 6
-0.420244 0.431343 6.509111 91 107 47
-0.424461 0.496334 6.503582 110 126 36
-0.423880 0.609765 6.518770 137 156 75
-0.426127 0.718658 6.537420 61 62 38
-0.422689 0.770708 6.487650 213 192 149
-0.636714 -3.806124 9.878876 174 167 147
-0.639081 -3.607288 9.874978 184 174 148
-0.637046 -3.591802 9.878999 154 144 116
-0.636686 -3.551845 9.883542 192 187 158
-0.637124 -3.248349 9.916555 182 169 137
-0.639346 -3.222585 9.921061 204 184 157
-0.637166 -3.107387 9.897013 181 162 130
-0.634006 -2.995104 9.874078 191 171 138
-0.640418 -2.822198 9.881115 196 176 143
-0.637949 -2.609594 9.887760 211 190 161
-0.637650 -2.560935 9.882958 205 185 155
-0.621433 -2.322019 9.608127 208 185 144
-0.579883 -0.921787 8.962174 138 114 69
-0.566094 -0.553562 8.785453 188 164 123
-0.567073 -0.433605 8.771741 137 121 93
-0.565108 -0.297393 8.732508 87 119 160
-0.418541 0.600881 6.516696 103 123 37
-0.632209 -3.784092 9.874798 146 143 130
-0.632292 -3.759791 9.873127 117 109 100
-0.632442 -3.683928 9.876699 137 132 113
-0.632819 -3.657724 9.877262 107 100 94
-0.636441 -3.129258 9.900529 207 189 154
-0.617770 -2.253760 9.619421 192 170 125
-0.618764 -2.200111 9.618166 186 162 118
-0.582186 -1.619763 9.125523 148 126 86
-0.581568 -1.533129 9.095312 150 138 102
-0.574721 -1.400583 9.000046 53 39 20
-0.567500 -1.120111 8.910042 169 146 100
-0.568412 -1.087068 8.908408 228 209 167
-0.571917 -1.045566 8.916907 202 179 137
-0.573940 -1.022967 8.951398 158 139 99
-0.575921 -0.964955 8.970587 200 172 133
-0.572826 -0.717030 8.937349 240 217 174
-0.561652 -0.538989 8.783334 186 164 124
-0.559966 -0.485119 8.780584 241 217 182
-0.416520 0.539459 6.508513 175 193 109
-0.418704 0.635288 6.526340 123 142 40
-0.418137 0.690908 6.539327 72 81 39
-0.417731 0.720954 6.538415 75 70 48
-0.624969 -3.726746 9.877980 178 166 156
-0.625989 -3.305839 9.916004 188 178 150
-0.625245 -2.961703 9.877009 205 187 155
-0.612183 -2.269527 9.620101 158 130 92
-0.583443 -2.021834 9.185295 198 170 130
-0.578473 -1.815295 9.123250 230 201 153
-0.577969 -1.575390 9.108460 171 151 116
-0.567366 -0.941916 8.971411 196 169 122
-0.568954 -0.691152 8.976837 219 197 150
-0.555838 -0.325028 8.742357 104 160 216
-0.412013 0.357621 6.501225 152 169 84
-0.413284 0.478753 6.504532 59 72 19
-0.412160 0.613241 6.519604 44 45 8
-0.620276 -2.746657 9.889305 195 178 147
-0.602988 -2.355905 9.614017 129 106 65
-0.603721 -2.311997 9.614804 165 143 100
-0.569953 -1.701855 9.124972 199 175 144
-0.571151 -1.623691 9.125371 147 126 83
-0.564771 -1.327720 9.000291 104 87 61
-0.565462 -1.263133 8.985274 156 130 94
-0.559606 -0.888750 8.953248 115 93 54
-0.561005 -0.751407 8.926435 175 153 119
-0.552146 -0.437808 8.773841 135 111 82
-0.410503 0.197886 6.526890 99 122 40
-0.407797 0.565702 6.513206 79 91 47
-0.615738 -3.497196 9.893524 71 68 70
-0.615379 -3.318019 9.915339 201 185 154
-0.612981 -2.881889 9.880356 192 173 140
-0.612195 -2.713224 9.888875 181 162 136
-0.611634 -2.670578 9.893108 193 179 151
-0.613437 -2.597667 9.887632 183 162 135
-0.611916 -2.558747 9.884558 159 143 118
-0.565747 -1.967587 9.151671 183 158 118
-0.564194 -1.776661 9.119395 70 46 26
-0.561412 -1.354020 8.996658 93 76 50
-0.406251 0.274856 6.529655 159 157 115
-0.405476 0.611846 6.518251 105 118 31
-0.607029 -3.515924 9.893188 79 78 74
-0.611621 -3.456204 9.903114 74 71 73
-0.612475 -3.238362 9.915643 189 175 141
-0.609805 -3.201365 9.912916 190 173 144
-0.610349 -3.076118 9.888671 206 190 154
-0.606755 -3.000659 9.877900 148 136 117
-0.609282 -2.900846 9.877538 181 166 137
-0.608251 -2.826214 9.881235 126 110 89
-0.610390 -2.798046 9.884967 205 189 157
-0.561519 -1.706540 9.124640 86 74 40
-0.558687 -1.523408 9.064862 160 141 108
-0.552604 -0.983473 8.984716 167 142 96
-0.402093 0.204025 6.527606 59 72 21
-0.402240 0.321425 6.515098 166 175 109
-0.399751 0.625599 6.525168 184 204 108
-0.402373 0.646181 6.534915 124 141 33
-0.403065 0.705549 6.540366 107 113 53
-0.399958 0.750849 6.528437 218 199 167
-0.599709 -3.685003 9.879279 72 71 69
-0.604965 -3.412630 9.904308 75 75 73
-0.603330 -2.951361 9.875248 181 170 156
-0.604275 -2.756868 9.887217 113 95 89
-0.604980 -2.628330 9.892956 141 128 117
-0.603182 -2.481358 9.869080 124 101 57
-0.587938 -2.315031 9.616513 181 157 112
-0.584181 -2.167073 9.623285 185 161 121
-0.548149 -1.366091 8.994378 84 73 46
-0.545082 -1.227471 8.970573 215 196 163
-0.544447 -1.180021 8.950128 208 184 140
-0.545992 -0.853605 8.935185 169 146 105
-0.535378 -0.589384 8.783731 218 194 146
-0.397967 0.539505 6.508044 163 180 105
-0.397980 0.732441 6.535863 208 195 150
-0.594991 -3.782112 9.877539 71 68 68
-0.595979 -3.472475 9.900350 75 74 71
-0.598082 -3.458044 9.904301 75 73 73
-0.597337 -3.397502 9.909450 73 72 69
-0.595805 -2.530438 9.877149 82 62 60
-0.581269 -2.396848 9.637188 172 149 112
-0.549277 -1.937844 9.107899 225 200 159
-0.548718 -1.727417 9.121627 242 221 173
-0.545162 -1.459020 9.004973 181 166 131
-0.541686 -0.699002 8.975262 239 216 172
-0.530175 -0.537986 8.784965 195 166 122
-0.394164 0.196290 6.526288 114 129 38
-0.394571 0.680122 6.537927 142 168 90
-0.393661 0.696757 6.539332 96 114 38
-0.391351 0.776093 6.463022 209 185 150
-0.592940 -3.841433 9.880354 67 68 63
-0.586607 -3.805138 9.876949 71 70 68
-0.587645 -3.707632 9.879890 71 71 69
-0.590315 -3.585212 9.880777 74 71 66
-0.595350 -3.277435 9.919445 187 174 140
-0.590239 -3.184397 9.909324 187 170 140
-0.592050 -3.165093 9.906726 190 173 144
-0.592218 -3.121974 9.899665 193 173 140
-0.577169 -2.277418 9.627025 192 167 124
-0.542312 -1.884187 9.083315 150 135 85
-0.544618 -1.552470 9.078418 133 118 92
-0.538124 -0.653708 8.972034 211 184 137
-0.521881 -0.453913 8.778388 96 73 57
-0.448747 -0.028843 7.509190 147 158 85
-0.388151 0.518819 6.506759 155 167 122
-0.387659 0.581852 6.510657 116 128 66
-0.583376 -3.815677 9.880525 68 68 66
-0.583192 -3.661076 9.879478 72 71 67
-0.536966 -1.665103 9.123482 140 122 86
-0.538441 -1.587326 9.097788 208 190 155
-0.536533 -1.281478 9.000939 137 113 76
-0.531624 -1.024185 8.993804 94 68 33
-0.531345 -0.961131 8.995277 167 138 85
-0.531421 -0.947355 8.995891 161 137 89
-0.518597 -0.371072 8.776025 140 133 153
-0.386830 0.192871 6.529445 145 167 37
-0.384918 0.290969 6.521782 135 162 63
-0.384833 0.371741 6.501431 94 105 44
-0.387925 0.435398 6.510209 24 44 0
-0.383772 0.476576 6.507750 80 96 31
-0.387600 0.715934 6.538065 194 203 125
-0.580899 -3.454263 9.904426 70 67 69
-0.580752 -3.138945 9.902088 202 183 151
-0.580899 -3.109051 9.898173 187 168 134
-0.581639 -2.978209 9.878249 73 70 66
-0.577274 -2.771404 9.887775 75 71 62
-0.538597 -1.993522 9.151334 194 170 126
-0.524605 -1.135595 8.935856 229 205 161
-0.526528 -0.836056 9.021826 140 116 76
-0.514029 -0.468240 8.783244 87 64 32
-0.511192 -0.325764 8.748950 71 119 174
-0.509871 -0.302135 8.743120 91 135 178
-0.383271 0.239903 6.531202 167 176 92
-0.382741 0.271598 6.526277 190 206 151
-0.380977 0.577356 6.509756 149 164 97
-0.380086 0.664719 6.539172 192 207 105
-0.380502 0.762645 6.523456 222 202 177
-0.572593 -3.765459 9.876090 69 68 67
-0.572206 -3.735193 9.878890 70 66 65
-0.573893 -3.661262 9.880123 72 71 67
-0.573312 -3.619219 9.880389 73 73 71
-0.571522 -3.436727 9.904602 74 70 67
-0.566037 -2.559141 9.829030 64 64 56
-0.556860 -2.210690 9.627541 198 174 130
-0.560698 -2.175997 9.623692 207 183 140
-0.523744 -1.872348 9.073977 175 159 110
-0.528675 -1.744519 9.122842 91 71 54
-0.515831 -1.471965 8.976519 107 95 72
-0.518046 -1.111389 8.942716 235 211 165
-0.521623 -0.861440 9.008135 182 160 113
-0.522298 -0.729860 8.994046 132 108 71
-0.519411 -0.634316 8.944222 224 202 151
-0.375550 0.348445 6.497419 100 119 32
-0.375719 0.556359 6.507905 74 93 29
-0.566324 -3.697801 9.879969 68 67 65
-0.565615 -3.673198 9.880383 69 68 66
-0.570071 -3.593757 9.878585 65 65 63
-0.566461 -3.539164 9.879698 57 54 47
-0.569615 -3.420932 9.909545 67 66 62
-0.567764 -3.346810 9.924062 198 176 165
-0.572339 -3.331477 9.920320 157 144 116
-0.566088 -3.165689 9.905094 174 158 128
-0.565754 -3.078902 9.893722 209 189 159
-0.569719 -2.921548 9.879400 79 72 64
-0.567387 -2.858226 9.879531 81 74 66
-0.519744 -1.762418 9.129346 65 49 26
-0.512964 -1.495375 8.985690 215 194 148
-0.513712 -1.088091 8.964905 231 209 162
-0.518660 -1.004377 8.998590 222 196 139
-0.513155 -0.891442 9.000419 211 187 133
-0.499515 -0.407059 8.776474 191 160 104
-0.505530 -0.379742 8.775855 212 193 156
-0.375626 0.234175 6.533056 121 130 64
-0.373308 0.471089 6.507522 54 73 12
-0.371960 0.779627 6.457269 215 194 151
-0.561565 -3.842252 9.882115 63 63 63
-0.558909 -3.645637 9.880960 69 66 65
-0.560161 -3.210109 9.911292 160 142 114
-0.544049 -2.261453 9.628742 186 162 119
-0.508671 -1.190283 8.961815 152 132 100
-0.512950 -0.992043 8.996881 210 183 125
-0.511838 -0.935590 8.998524 208 182 121
-0.509358 -0.677306 8.970008 194 169 122
-0.497418 -0.547150 8.788884 207 184 140
-0.371250 0.174641 6.530805 30 41 13
-0.371331 0.272605 6.525806 26 35 0
-0.368627 0.308493 6.510456 102 117 49
-0.369276 0.770853 6.456521 201 181 147
-0.554617 -3.817504 9.879670 67 66 66
-0.552476 -3.464587 9.867488 69 65 64
-0.556164 -2.860503 9.880778 79 72 64
-0.557610 -2.753239 9.889155 72 65 57
-0.554838 -2.730920 9.886991 76 68 65
-0.550795 -2.496507 9.806514 195 171 127
-0.542616 -2.421382 9.698159 150 125 85
-0.541427 -2.368475 9.616449 185 162 121
-0.540639 -2.289510 9.628095 162 135 99
-0.510533 -1.979242 9.126433 155 127 84
-0.511636 -1.942262 9.091424 194 171 130
-0.512617 -1.614817 9.119244 60 37 30
-0.504031 -1.326358 9.001217 98 78 51
-0.503179 -1.098482 8.959007 238 216 169
-0.505249 -0.952708 8.995609 213 184 128
-0.507427 -0.832392 9.015323 165 142 101
-0.505742 -0.788449 9.010665 125 103 62
-0.499380 -0.607067 8.855811 226 200 154
-0.494950 -0.579768 8.789425 225 201 157
-0.495060 -0.516290 8.785760 177 153 106
-0.492972 -0.285786 8.730029 181 179 183
-0.365843 0.194837 6.529884 54 68 11
-0.366199 0.378524 6.500438 134 143 67
-0.364118 0.547486 6.506021 21 30 3
-0.366671 0.615696 6.519530 57 59 31
-0.367368 0.644120 6.540364 39 48 10
-0.551406 -3.787038 9.877495 67 66 66
-0.549508 -3.245040 9.912913 162 152 126
-0.547471 -2.915738 9.867660 78 71 64
-0.534209 -2.181547 9.629432 198 173 127
-0.508987 -1.798825 9.132170 95 68 54
-0.500169 -0.878456 9.001028 220 194 143
-0.500754 -0.856085 9.007971 204 182 133
-0.448816 -0.114716 8.090022 126 130 31
-0.361087 0.354040 6.497120 82 99 9
-0.364216 0.664305 6.540142 159 172 78
-0.543274 -3.724191 9.877605 68 69 66
-0.542727 -3.570309 9.879338 65 65 61
-0.548623 -3.407644 9.937099 75 71 67
-0.541810 -3.128458 9.874771 95 75 65
-0.540379 -2.977190 9.861171 74 69 63
-0.543293 -2.927912 9.864186 73 68 64
-0.501756 -1.758365 9.135107 168 147 117
-0.500382 -1.702637 9.139361 148 132 90
-0.493663 -1.497306 8.981338 121 98 68
-0.496420 -1.023876 8.999694 223 199 144
-0.496275 -0.904806 8.998674 165 139 87
-0.497390 -0.809020 9.014812 155 132 90
-0.359213 0.192685 6.528550 74 90 41
-0.360198 0.223894 6.536170 74 100 35
-0.356327 0.298369 6.514320 106 119 43
-0.356837 0.434735 6.507732 123 143 68
-0.356373 0.506599 6.506094 117 137 91
-0.535815 -3.801511 9.885052 62 63 67
-0.540355 -3.294899 9.922587 149 137 128
-0.536041 -3.074570 9.863240 196 178 134
-0.535366 -3.010697 9.857325 72 70 65
-0.538069 -2.996383 9.858755 72 68 63
-0.535699 -2.766386 9.872617 76 73 61
-0.536219 -2.671485 9.862296 73 65 58
-0.534472 -2.653810 9.858072 70 63 55
-0.535569 -2.594510 9.842299 73 66 61
-0.525582 -2.326026 9.622024 171 148 104
-0.520693 -2.216899 9.627583 156 133 92
-0.492414 -1.908653 9.063276 174 148 108
-0.489905 -1.487292 8.977632 196 173 132
-0.491250 -1.381240 8.991449 201 185 141
-0.489496 -1.127077 8.967322 235 212 168
-0.420131 0.051199 7.722107 175 183 70
-0.355253 0.253789 6.531591 113 122 72
-0.354760 0.324998 6.504919 126 142 68
-0.355348 0.548548 6.505620 80 95 52
-0.355715 0.770949 6.510409 213 192 165
-0.529070 -3.747796 9.845854 65 65 67
-0.518897 -3.440226 9.664630 68 67 65
-0.528722 -2.879626 9.867447 72 64 61
-0.530527 -2.722292 9.869124 70 62 60
-0.491055 -1.678150 9.138288 124 114 74
-0.484355 -1.318138 9.012574 202 178 131
-0.484345 -0.720360 8.979148 197 168 134
-0.480056 -0.670226 8.969835 218 189 145
-0.471687 -0.490352 8.790208 209 186 139
-0.470922 -0.461258 8.787374 171 156 126
-0.352215 0.434690 6.506504 106 129 44
-0.351294 0.522955 6.504938 115 123 79
-0.351347 0.684172 6.537712 138 152 39
-0.350152 0.726492 6.534033 146 145 109
-0.350637 0.758454 6.524825 205 190 167
-0.508795 -3.475688 9.590328 64 64 62
-0.523264 -2.973925 9.862083 71 66 61
-0.522628 -2.965580 9.862966 72 67 64
-0.528088 -2.824123 9.868001 70 65 59
-0.530058 -2.671348 9.862484 73 67 61
-0.485351 -1.862580 9.128000 146 129 86
-0.487352 -1.621709 9.120586 96 76 58
-0.483694 -1.554036 9.057144 171 156 125
-0.477808 -1.518104 8.994468 159 138 111
-0.480067 -1.205764 8.981878 127 105 74
-0.480487 -1.058134 9.022662 128 103 56
-0.478813 -0.957220 9.000628 215 192 143
-0.468635 -0.509985 8.788989 199 177 128
-0.348390 0.190253 6.532761 69 85 48
-0.346079 0.223828 6.542886 89 100 28
-0.503350 -3.342426 9.564102 62 62 54
-0.521612 -3.417926 9.934775 72 68 65
-0.507871 -2.365234 9.619853 129 107 66
-0.473524 -1.902721 9.082755 208 184 143
-0.481171 -1.792016 9.140546 204 180 152
-0.472076 -0.767954 8.993570 150 128 81
-0.458384 -0.370936 8.771759 57 53 62
-0.339809 0.341389 6.503294 141 157 82
-0.342262 0.466811 6.508736 115 130 67
-0.513145 -3.196046 9.896950 69 65 62
-0.513585 -2.784499 9.867519 72 66 58
-0.514377 -2.774242 9.868462 68 62 55
-0.500249 -2.292395 9.627933 151 127 83
-0.497347 -2.169037 9.623632 177 153 113
-0.471401 -1.706274 9.141814 115 100 65
-0.473974 -1.679399 9.141739 77 67 34
-0.467857 -0.810592 9.012849 168 141 96
-0.338570 0.275705 6.526337 74 94 34
-0.337415 0.289561 6.518408 72 94 33
-0.336399 0.320937 6.510290 77 93 6
-0.338520 0.424552 6.508106 164 178 99
-0.337683 0.492838 6.507114 46 64 22
-0.337347 0.593837 6.504212 40 52 15
-0.510779 -2.997223 9.853922 66 66 57
-0.504837 -2.901408 9.851809 64 60 53
-0.501098 -2.500897 9.763757 76 55 43
-0.496921 -2.432252 9.688867 145 124 84
-0.459224 -1.449302 8.979384 236 212 167
-0.466849 -1.287694 9.036341 140 117 82
-0.462222 -1.107296 8.995320 240 219 174
-0.461589 -0.708546 8.976886 177 153 125
-0.462340 -0.627176 8.936534 206 180 132
-0.451056 -0.542383 8.795721 187 164 122
-0.334895 0.439611 6.508143 107 118 50
-0.484927 -3.376615 9.569291 68 65 58
-0.506611 -3.379802 9.931745 67 63 62
-0.503859 -3.329689 9.924533 67 65 66
-0.502254 -2.796886 9.853601 69 59 52
-0.501238 -2.716803 9.850944 65 56 50
-0.456629 -1.476490 8.980855 146 122 84
-0.457916 -1.335280 9.012773 207 179 139
-0.460373 -0.825109 9.015651 160 136 88
-0.332317 0.195926 6.531996 128 145 100
-0.330627 0.377235 6.505164 159 177 69
-0.331028 0.461536 6.506895 167 172 108
-0.330484 0.732479 6.532480 207 196 159
-0.498062 -3.423511 9.930502 66 65 61
-0.498969 -3.397577 9.932129 71 67 64
-0.497301 -3.355090 9.927924 69 67 63
-0.499732 -3.323757 9.924849 68 68 69
-0.494291 -3.043320 9.854012 65 60 51
-0.495326 -2.875464 9.853139 67 63 54
-0.491204 -2.620690 9.818490 203 175 151
-0.486749 -2.394624 9.649961 150 129 88
-0.484415 -2.141609 9.626121 205 178 135
-0.457946 -1.899842 9.114997 177 150 105
-0.459514 -1.667258 9.138729 115 93 65
-0.455361 -1.648361 9.136827 162 144 103
-0.449288 -1.527163 9.027432 104 88 51
-0.453713 -1.007433 9.029555 236 215 173
-0.456343 -0.975552 9.019129 232 212 167
-0.453330 -0.892239 9.018158 142 119 78
-0.442723 -0.552850 8.796412 221 199 157
-0.324838 0.392400 6.505194 56 69 17
-0.485575 -3.784609 9.832222 61 60 55
-0.489667 -3.271163 9.920910 73 72 67
-0.487023 -3.006309 9.850139 59 57 49
-0.488314 -2.888077 9.851341 65 60 50
-0.488427 -2.588741 9.807395 210 182 139
-0.476470 -2.340584 9.626961 146 123 83
-0.474712 -2.299213 9.632783 178 151 110
-0.478658 -2.258625 9.629234 141 117 80
-0.453479 -1.748840 9.146206 196 179 139
-0.453256 -1.703518 9.147306 141 121 78
-0.443885 -1.405196 8.987445 118 104 71
-0.446072 -1.386947 8.995853 89 64 37
-0.444418 -1.119887 8.989028 239 218 173
-0.448543 -0.924849 9.029943 193 170 123
-0.389999 -0.005540 7.842508 34 45 19
-0.322904 0.222474 6.542156 124 135 68
-0.325210 0.275819 6.525445 26 40 8
-0.326091 0.661631 6.547569 33 42 3
-0.324604 0.671304 6.547597 191 207 97
-0.481054 -3.741269 9.826095 61 60 58
-0.477615 -3.576603 9.821024 60 59 54
-0.482372 -3.551554 9.823654 64 61 56
-0.481240 -2.759220 9.856982 64 60 49
-0.482028 -2.680821 9.840747 65 58 52
-0.481067 -2.533994 9.778217 193 169 135
-0.446756 -1.649465 9.141760 205 186 135
-0.447716 -1.619611 9.129719 128 105 70
-0.440709 -0.808629 9.020272 185 164 117
-0.440158 -0.688249 8.962909 84 60 42
-0.438616 -0.650450 8.954744 207 180 130
-0.431882 -0.521805 8.781790 185 161 117
-0.429566 -0.451781 8.790532 137 116 80
-0.406660 -0.128836 8.311288 165 167 73
-0.317971 0.307325 6.512290 83 102 41
-0.319157 0.325170 6.506205 23 38 5
-0.318637 0.338795 6.504092 184 196 120
-0.476704 -3.584481 9.821577 62 61 56
-0.479812 -3.194484 9.896567 70 65 59
-0.469186 -2.453278 9.732659 171 147 104
-0.468724 -2.429632 9.695348 208 184 140
-0.439465 -1.857157 9.146698 199 187 137
-0.443381 -1.789403 9.147884 165 144 101
-0.439835 -0.983387 9.036407 229 211 168
-0.431563 -0.621271 8.935143 224 200 155
-0.422836 -0.500516 8.779061 231 208 166
-0.315212 0.292844 6.512278 42 57 19
-0.314566 0.360670 6.503966 38 57 10
-0.314243 0.454032 6.507188 26 33 1
-0.317228 0.716530 6.539474 98 102 54
-0.464555 -3.394184 9.660265 65 64 59
-0.472330 -3.224125 9.906240 64 63 59
-0.472963 -3.120677 9.873823 158 140 117
-0.467528 -2.479352 9.756789 154 132 91
-0.461902 -2.223751 9.631557 185 156 115
-0.437231 -1.801540 9.148811 123 99 69
-0.427695 -1.482168 8.999143 160 140 107
-0.435211 -1.086186 9.077287 213 190 140
-0.432855 -1.017458 9.056536 238 218 176
-0.432449 -0.799164 9.013964 168 146 98
-0.420453 -0.584362 8.782409 232 205 160
-0.310930 0.323552 6.504097 24 45 5
-0.309809 0.405530 6.506766 169 180 112
-0.464419 -3.801951 9.828900 55 54 49
-0.462633 -3.538725 9.819585 66 61 55
-0.463454 -3.511174 9.824410 57 52 47
-0.465489 -3.505369 9.831001 66 63 56
-0.457272 -2.430944 9.698205 196 170 130
-0.453343 -2.197734 9.635910 194 171 129
-0.425531 -1.405955 9.008018 96 75 41
-0.428177 -1.366414 9.055509 109 87 49
-0.427507 -0.732592 8.976177 108 80 44
-0.308684 0.165627 6.536416 30 43 1
-0.454695 -3.706512 9.827838 57 57 51
-0.449574 -3.359691 9.653631 65 61 57
-0.461086 -3.044532 9.851883 194 181 142
-0.457027 -2.958959 9.851387 163 146 110
-0.456154 -2.924479 9.852279 126 110 77
-0.458129 -2.899407 9.852055 127 115 81
-0.457730 -2.754478 9.857358 91 76 51
-0.454412 -2.638860 9.824921 112 87 64
-0.447326 -2.368443 9.633954 160 132 93
-0.429522 -2.032353 9.243685 190 167 122
-0.425569 -1.945020 9.147765 212 186 145
-0.419282 -1.462873 8.996882 98 70 39
-0.409496 -0.432511 8.793138 156 139 113
-0.304298 0.452928 6.504369 61 73 25
-0.303791 0.596641 6.510786 109 122 81
-0.307262 0.645075 6.550812 55 63 25
-0.305517 0.698086 6.546131 123 131 57
-0.304408 0.773211 6.534056 211 192 165
-0.456390 -3.688194 9.828176 56 54 55
-0.450904 -3.670411 9.826457 60 58 55
-0.450813 -3.477921 9.806523 62 58 54
-0.448343 -3.441735 9.752809 66 63 58
-0.456378 -3.340338 9.927688 67 64 61
-0.458035 -3.303857 9.926944 68 67 63
-0.452799 -2.828258 9.855259 209 193 158
-0.451693 -2.730168 9.858447 174 158 126
-0.441300 -2.272483 9.634542 155 136 100
-0.416682 -1.870429 9.152023 222 189 144
-0.421707 -1.317598 9.092994 220 195 154
-0.419091 -1.187566 9.111399 237 215 168
-0.421151 -1.109216 9.125242 187 164 117
-0.417043 -1.059136 9.114182 229 202 152
-0.418697 -1.000255 9.100701 232 212 162
-0.417370 -0.883241 9.038492 217 195 147
-0.415544 -0.872403 9.034264 213 189 141
-0.412870 -0.649967 8.951891 216 190 140
-0.403273 -0.472320 8.792177 178 158 115
-0.295741 0.368550 6.505765 58 73 13
-0.298419 0.427488 6.506869 94 108 43
-0.446364 -3.612919 9.820930 55 54 49
-0.446580 -3.077033 9.855235 204 185 149
-0.447193 -2.790322 9.855701 210 193 153
-0.436965 -2.335341 9.629692 150 126 80
-0.436176 -2.309180 9.633033 144 122 80
-0.438505 -2.175730 9.632501 187 165 124
-0.411943 -1.227583 9.082537 243 220 173
-0.410771 -0.904330 9.043704 230 207 165
-0.398314 -0.375240 8.786942 83 101 129
-0.296922 0.718623 6.539086 81 86 52
-0.441160 -3.746197 9.823589 54 53 49
-0.438649 -3.634205 9.822927 57 57 49
-0.439324 -3.514991 9.814345 48 43 39
-0.439597 -3.435894 9.760717 62 58 53
-0.440153 -3.240030 9.827142 66 62 59
-0.438890 -3.014638 9.850464 245 231 197
-0.441077 -2.934316 9.848826 201 182 140
-0.439955 -2.857738 9.854288 186 164 127
-0.404544 -1.388625 9.059896 122 96 57
-0.408467 -0.958238 9.095106 220 198 151
-0.403573 -0.776587 8.981619 115 95 62
-0.402774 -0.683633 8.957673 205 183 150
-0.392153 -0.544218 8.779619 211 184 139
-0.373824 -0.219596 8.310822 98 80 47
-0.294291 0.255355 6.524692 66 79 33
-0.294835 0.281183 6.518002 55 60 3
-0.433384 -3.676773 9.826084 54 55 48
-0.429757 -3.236472 9.683068 59 59 55
-0.435945 -3.217813 9.860408 68 64 61
-0.433177 -3.095496 9.856572 186 166 136
-0.428055 -2.404748 9.664220 168 148 106
-0.429179 -2.380487 9.641931 194 169 128
-0.407534 -1.905247 9.150514 177 150 103
-0.404123 -1.825458 9.153669 98 84 43
-0.402269 -1.698914 9.151286 150 137 96
-0.406823 -1.153893 9.129806 215 192 148
-0.391411 -0.506984 8.792617 221 197 151
-0.288181 0.225758 6.537606 86 95 50
-0.289325 0.291159 6.514043 140 155 52
-0.289385 0.367570 6.506840 84 99 32
-0.286701 0.392416 6.505685 153 173 107
-0.429053 -3.538421 9.817164 60 57 50
-0.431471 -3.191630 9.863190 66 62 58
-0.433153 -2.836338 9.855008 213 190 155
-0.424240 -2.550022 9.791204 214 194 161
-0.420493 -2.238711 9.635843 223 195 151
-0.417800 -2.191587 9.636473 211 186 139
-0.397258 -1.305981 9.117310 97 70 40
-0.398160 -1.246715 9.112278 239 216 172
-0.398531 -1.135324 9.138238 174 150 108
-0.384204 -0.434136 8.799575 193 175 137
-0.385036 -0.327416 8.771510 83 149 209
-0.364811 -0.207353 8.339849 177 163 110
-0.283544 0.213859 6.539857 26 25 6
-0.285479 0.766863 6.544922 213 197 168
-0.423805 -3.047564 9.850324 197 180 150
-0.420000 -2.970191 9.848028 200 181 149
-0.421455 -2.741012 9.857335 193 170 138
-0.420934 -2.541439 9.785341 206 186 153
-0.419865 -2.484507 9.765548 174 154 112
-0.416673 -2.218839 9.635850 183 158 118
-0.393084 -1.857820 9.156288 212 193 158
-0.391358 -1.752275 9.151957 180 159 132
-0.395670 -1.673804 9.149087 188 170 127
-0.390805 -1.640513 9.145760 204 189 149
-0.393601 -1.339126 9.115532 168 148 97
-0.390575 -1.066513 9.135962 221 191 137
-0.281859 0.713519 6.539027 47 54 14
-0.416697 -2.901522 9.852919 221 203 173
-0.405945 -2.312056 9.636113 188 166 124
-0.390167 -1.777835 9.151637 88 73 47
-0.387833 -1.596763 9.126131 95 73 49
-0.382949 -1.501955 9.035441 232 203 157
-0.383703 -1.449130 9.014502 168 149 112
-0.386319 -1.229615 9.116706 238 218 174
-0.378690 -0.591857 8.841414 220 197 155
-0.275626 0.436341 6.505313 134 152 93
-0.274241 0.591306 6.508859 37 50 11
-0.408362 -3.505097 9.859738 57 54 49
-0.412088 -2.564862 9.799589 206 185 153
-0.382269 -1.880079 9.157708 122 103 58
-0.379276 -1.622568 9.138867 191 176 135
-0.380638 -1.386287 9.120924 100 76 32
-0.374798 -0.650206 8.931979 219 191 143
-0.272302 0.203392 6.541457 139 148 95
-0.272770 0.337253 6.506058 53 60 17
-0.272065 0.400609 6.507205 176 190 132
-0.271961 0.424461 6.505246 53 75 16
-0.275358 0.683657 6.546510 210 201 90
-0.408081 -3.210216 9.861166 60 55 54
-0.406043 -3.151352 9.863372 210 177 168
-0.402177 -2.949506 9.850010 204 186 157
-0.404625 -2.937495 9.852070 203 186 156
-0.403660 -2.625015 9.835341 189 165 127
-0.394934 -2.367929 9.635638 167 145 102
-0.395193 -2.293072 9.638320 167 146 111
-0.370438 -1.479128 9.029837 94 76 38
-0.375500 -1.416892 9.110215 210 184 139
-0.377405 -1.298505 9.130312 207 183 139
-0.376774 -1.113204 9.139644 222 195 148
-0.376784 -1.036262 9.136078 151 125 89
-0.374360 -0.915158 9.058919 230 209 166
-0.369626 -0.795871 9.031860 171 147 104
-0.363967 -0.510107 8.807325 218 196 149
-0.269960 0.720292 6.535934 98 103 75
