ply
format ascii 1.0
element vertex 1219
property float x
property float y
property float z
property uchar red
property uchar green
property uchar blue
end_header
-1.716691 0.054354 4.985438 21 13 6
-1.755864 0.260329 5.162529 40 22 8
-1.704367 -0.460429 5.056811 20 8 6
-1.694263 -0.473673 5.046085 15 10 4
-1.594026 -1.260333 4.816633 6 3 0
-1.691158 0.100977 5.180092 32 17 7
-1.933788 -1.767382 5.904761 13 9 9
-1.632865 -1.214399 5.016137 12 9 5
-1.916468 -1.777887 5.914335 13 11 6
-1.641799 0.115340 5.138139 33 21 7
-1.583032 -1.488126 4.936344 13 11 7
-1.561809 -1.420465 4.882204 32 31 18
-1.577803 -1.477742 4.951131 33 30 18
-1.577983 -1.467247 4.957778 12 17 7
-1.563135 -1.441274 4.903854 24 23 16
-1.571926 -1.497310 4.939939 11 12 7
-1.537805 -1.252013 4.844934 23 18 11
-1.571885 -1.480606 4.951645 19 18 13
-1.610828 -1.187216 5.137468 13 10 5
-1.529882 -1.237121 4.897783 14 11 4
-1.553341 -1.238237 4.998264 12 12 7
-1.558869 -0.544186 5.219964 20 12 5
-1.819530 -1.786065 6.113818 5 16 8
-1.630663 -0.456671 5.487262 23 16 7
-1.813648 -1.787166 6.123507 8 17 12
-1.822064 -1.766422 6.156917 9 15 8
-1.628665 -0.396395 5.502249 22 14 2
-1.803498 -1.801034 6.141455 23 19 10
-1.458371 -1.353547 5.000477 11 11 9
-1.791227 -1.847790 6.120903 13 11 9
-1.592063 -0.308513 5.453481 27 16 7
-1.453153 -1.367479 4.996441 10 10 5
-1.767585 -1.867460 6.114232 22 21 21
-1.442227 -1.356318 5.007629 13 15 9
-1.435461 -1.342128 4.999172 8 10 5
-1.590184 -0.282777 5.515017 19 9 1
-1.748586 -1.902637 6.073063 24 23 19
-1.753184 -1.891309 6.098142 20 12 10
-1.585154 -0.255282 5.531914 34 22 12
-1.536273 0.510442 5.464273 55 33 14
-1.717465 -1.949218 6.090190 79 76 67
-1.738730 0.065962 6.155612 39 19 7
-1.430250 0.420762 5.202532 51 33 11
-1.474734 0.541608 5.412383 62 40 18
-1.510820 -1.017438 5.544167 23 18 17
-1.495811 -1.065017 5.499104 29 24 16
-1.495722 -1.030433 5.526936 22 18 15
-1.490688 -1.043211 5.521134 22 18 14
-1.468012 -1.132247 5.462810 28 20 17
-1.477660 -1.072234 5.505799 22 20 15
-1.489850 -0.995006 5.555122 15 16 10
-1.488155 -0.996725 5.552761 15 16 11
-1.454466 -1.181136 5.444390 29 24 17
-1.473340 -1.039926 5.537745 24 19 15
-1.460858 -1.087473 5.499553 22 18 13
-1.473021 -1.023049 5.549397 20 12 8
-1.463050 -1.063216 5.521627 28 20 14
-1.542368 -0.280669 5.833615 25 11 4
-1.440482 -1.173916 5.455549 20 20 10
-1.452800 -1.073371 5.515168 77 48 31
-1.460327 -1.038976 5.552461 118 67 27
-1.466051 -1.014223 5.573727 97 54 20
-1.536644 -0.281948 5.832051 25 11 4
-1.537690 -0.264368 5.844508 29 13 6
-1.464919 -0.999760 5.589958 72 38 14
-1.450269 -0.894124 5.529036 13 12 8
-1.531118 -0.285164 5.839718 23 12 6
-1.532120 -0.266090 5.843310 29 11 6
-1.446382 0.312832 5.567995 47 38 21
-1.360261 -1.083763 5.194881 22 19 13
-1.352843 -1.073603 5.194399 36 29 19
-1.359945 -1.069033 5.212843 25 20 15
-1.465346 -0.773818 5.655850 16 12 9
-1.472720 -0.752695 5.672453 13 12 7
-1.343580 -1.103265 5.176294 39 33 22
-1.466059 -0.763405 5.663608 19 13 9
-1.364894 -1.043513 5.274540 51 34 17
-1.340032 -1.075657 5.191519 61 43 21
-1.409218 -0.908328 5.458557 64 29 7
-1.447505 -0.807549 5.625982 19 14 11
-1.463913 -0.745238 5.681379 16 14 10
-1.465225 -0.721202 5.701344 15 10 4
-1.453900 -0.782097 5.651953 16 11 8
-1.462929 -0.732527 5.691054 16 13 8
-1.326017 -1.182127 5.156607 40 32 29
-1.343340 -1.054545 5.226454 70 50 34
-1.453200 -0.763146 5.669608 15 14 9
-1.474422 -0.660576 5.757652 26 20 13
-1.362982 -0.974181 5.302034 22 33 20
-1.364856 -0.935483 5.334669 58 47 34
-1.449121 -0.759044 5.673518 12 12 6
-1.333507 -1.060174 5.223901 78 63 45
-1.355782 -0.957373 5.311785 49 53 37
-1.452320 -0.703190 5.738059 12 9 6
-1.453997 -0.485612 5.731603 27 17 6
-1.464199 -0.388325 5.793476 23 11 5
-1.311226 -1.140581 5.168422 153 113 57
-1.311673 -1.124422 5.171082 139 109 53
-1.311333 -1.111395 5.176255 199 157 85
-1.319788 -1.069718 5.207421 175 137 46
-1.344841 -0.920902 5.309727 71 65 47
-1.326287 -1.043873 5.248376 159 126 42
-1.431742 -0.755571 5.678815 32 23 17
-1.358076 -1.415783 5.378350 20 17 12
-1.350316 -1.386841 5.355260 22 18 13
-1.368110 -0.842177 5.437958 77 79 80
-1.424672 -0.745536 5.682588 71 53 46
-1.430077 -0.730173 5.704741 43 28 22
-1.433214 -0.715877 5.724508 32 21 13
-1.335661 -1.445558 5.325243 22 17 12
-1.340718 -1.431654 5.341790 14 13 12
-1.298021 -1.186545 5.162413 183 146 87
-1.323442 -0.967939 5.269517 121 113 106
-1.325987 -0.940885 5.281666 112 107 97
-1.356212 -0.804023 5.404241 64 61 56
-1.329300 -1.460760 5.314882 16 16 13
-1.342400 -1.405403 5.364081 18 17 10
-1.311762 -1.054794 5.229650 241 187 80
-1.332018 -1.447237 5.328576 15 13 8
-1.292562 -1.161013 5.169164 149 122 37
-1.323841 -0.913551 5.298535 55 56 59
-1.332146 -0.879699 5.332206 136 88 47
-1.429461 -0.673252 5.768061 10 10 5
-1.320817 -1.470632 5.318253 16 17 12
-1.296380 -1.069946 5.207564 199 168 38
-1.297448 -1.050720 5.225205 189 149 42
-1.312213 -0.938438 5.269169 48 59 58
-1.321167 -0.887402 5.312794 129 110 101
-1.280910 -1.191852 5.163815 200 165 82
-1.314811 -0.839919 5.297249 169 107 55
-1.279001 -1.151070 5.165059 167 127 25
-1.296336 -1.035633 5.234741 187 145 33
-1.330533 -1.396320 5.389019 24 17 11
-1.277054 -1.143289 5.166723 118 80 16
-1.307160 -0.858887 5.296870 149 100 53
-1.272618 -1.184525 5.159498 172 137 36
-1.428790 -0.359510 5.826747 25 12 3
-1.434083 -0.342672 5.841187 22 11 8
-1.432119 -0.323335 5.844926 30 15 8
-1.288428 -0.890211 5.244425 45 45 58
-1.292561 -0.871876 5.258852 131 118 111
-1.266032 -1.200587 5.156845 176 138 31
-1.270443 -1.103232 5.185098 216 178 54
-1.287492 -0.813689 5.260121 136 78 15
-1.259995 -1.174119 5.157194 128 93 29
-1.261503 -1.162918 5.157489 160 112 48
-1.275994 -1.001513 5.219408 211 180 48
-1.284059 -0.973991 5.245777 41 50 54
-1.287610 -0.787403 5.271461 88 86 93
-1.262342 -1.132377 5.170298 184 137 67
-1.267618 -1.085670 5.190935 192 158 32
-1.269012 -1.063281 5.196058 212 175 49
-1.402373 -0.603608 5.777832 16 9 3
-1.417165 -0.355861 5.833690 44 30 21
-1.436044 -0.069982 5.903166 47 27 10
-1.303019 -1.457350 5.358746 18 18 9
-1.305692 -1.424602 5.377131 30 20 16
-1.276865 -0.809992 5.256607 126 72 38
-1.286006 -0.750507 5.295858 65 50 56
-1.301331 -0.714611 5.356528 83 45 19
-1.433733 -0.082053 5.901310 47 26 9
-1.253554 -1.208721 5.156980 183 141 40
-1.279902 -0.789856 5.269951 50 33 21
-1.289583 -1.323133 5.327956 59 57 34
-1.251774 -1.026076 5.171819 221 177 51
-1.256858 -1.001447 5.183824 208 179 56
-1.256303 -0.973554 5.189060 37 37 30
-1.271951 -0.890280 5.251716 55 52 69
-1.395539 -0.737116 5.783375 65 53 50
-1.286652 -1.470462 5.334728 19 20 14
-1.245018 -1.142826 5.148360 140 86 5
-1.270046 -0.805806 5.260552 162 102 38
-1.395800 -0.645900 5.805609 54 39 28
-1.277298 -1.474603 5.304103 19 22 15
-1.260605 -0.918060 5.231802 14 21 53
-1.264640 -0.882146 5.247062 116 103 91
-1.274868 -0.736044 5.303744 53 55 46
-1.392167 -0.578045 5.806646 17 9 6
-1.256623 -1.509624 5.234301 14 19 12
-1.319315 -0.647164 5.497141 71 60 54
-1.290880 -1.439119 5.397937 71 50 31
-1.242071 -1.251701 5.180959 143 105 24
-1.242672 -1.237833 5.179256 138 89 32
-1.236439 -1.128744 5.152272 172 134 19
-1.237420 -1.069450 5.155873 212 173 50
-1.267833 -0.749310 5.295507 100 95 78
-1.314028 -0.654587 5.491212 76 71 63
-1.269689 -1.363805 5.313151 108 56 21
-1.271606 -1.353249 5.307578 110 67 22
-1.234216 -1.038847 5.164589 221 183 54
-1.259536 -0.777973 5.274559 158 132 120
-1.262380 -0.766817 5.283134 63 47 52
-1.228652 -1.150921 5.140188 228 193 62
-1.231294 -1.051809 5.162489 226 193 58
-1.241445 -0.945788 5.204400 22 29 70
-1.256005 -0.835847 5.265322 137 99 75
-1.917248 -2.561939 8.041877 69 64 58
-1.924734 -2.540616 8.061725 68 64 56
-1.246074 -0.910788 5.238605 123 109 125
-1.250544 -0.865652 5.263168 138 126 101
-1.265187 -0.710718 5.327194 102 95 74
-1.315348 -0.616975 5.543094 43 42 30
-1.306796 -0.567017 5.507284 55 40 28
-1.222335 -1.085611 5.155849 233 203 67
-1.225956 -1.010574 5.160388 110 81 40
-1.226302 -1.002480 5.166169 137 78 14
-1.227806 -0.990050 5.173780 139 92 58
-1.233956 -0.958017 5.197833 146 150 150
-1.250613 -0.791684 5.271430 119 70 28
-1.372497 -0.406636 5.807884 30 17 9
-1.222160 -1.265417 5.158118 166 122 70
-1.220309 -1.126116 5.149952 231 190 60
-1.219435 -1.054204 5.151917 224 194 66
-1.252324 -0.749009 5.294832 67 78 62
-1.307106 -0.600681 5.531582 62 61 49
-1.894196 -2.549115 8.002189 70 69 59
-1.903459 -2.536027 8.043548 67 64 54
-1.218887 -1.290545 5.158350 175 147 54
-1.215071 -1.192455 5.138119 148 103 19
-1.213561 -1.179857 5.137968 204 160 58
-1.221689 -0.996041 5.171234 113 65 4
-1.218282 -1.234259 5.166333 200 161 70
-1.212808 -1.098928 5.149655 239 203 67
-1.223927 -0.955123 5.197077 22 37 67
-1.239138 -0.819320 5.265320 141 113 96
-1.210745 -1.042637 5.156881 170 155 130
-1.212116 -1.017682 5.157579 157 136 111
-1.226528 -0.923991 5.220767 133 110 43
-1.233734 -0.888862 5.250164 177 147 50
-1.236894 -0.870411 5.263353 161 137 68
-1.242135 -0.748246 5.294548 113 114 100
-1.261973 -0.677747 5.371034 121 102 76
-1.361951 -0.527865 5.813674 16 11 7
-1.366086 -0.439126 5.834992 30 20 11
-1.368258 -0.339700 5.855782 50 38 24
-1.256100 -1.477721 5.373373 69 62 57
-1.220831 -0.939825 5.208333 104 89 77
-1.881346 -2.541245 8.025450 72 68 59
-1.202576 -1.080402 5.145797 92 99 19
-1.206135 -1.017618 5.159595 150 101 49
-1.210302 -0.991801 5.177472 163 153 138
-1.210575 -0.975882 5.182930 54 52 54
-1.211877 -0.904268 5.195541 159 137 52
-1.232384 -0.817189 5.270291 170 144 121
-1.232334 -0.692357 5.275498 92 98 79
-1.278858 -0.671373 5.487880 102 70 48
-1.364726 -0.340980 5.859953 45 36 24
-1.251670 -1.484551 5.373425 62 52 53
-1.200881 -1.071755 5.147592 89 94 56
-1.202178 -1.043062 5.158529 124 103 85
-1.206032 -1.006179 5.170495 146 109 77
-1.227492 -0.784401 5.271740 137 86 41
-1.237210 -0.672645 5.304206 125 72 26
-1.274756 -0.657057 5.484417 98 66 32
-1.362695 -0.380450 5.858465 23 13 5
-1.344025 -0.208620 5.784586 33 16 5
-1.207374 -0.961678 5.187932 160 156 144
-1.219570 -0.710884 5.254631 33 53 32
-1.358719 -0.474520 5.870224 20 14 10
-1.193958 -1.147168 5.146450 201 143 41
-1.204682 -0.838543 5.197284 174 141 33
-1.222981 -0.778067 5.275158 183 114 43
-1.229400 -0.739114 5.300281 100 98 78
-1.233233 -0.658890 5.326169 123 110 100
-1.877440 -2.585897 8.092668 65 65 58
-1.226975 -1.531605 5.310766 17 20 15
-1.195966 -1.232452 5.165030 160 108 34
-1.193459 -1.039310 5.159692 177 161 138
-1.192181 -1.019240 5.159195 162 150 127
-1.238525 -0.590260 5.357082 83 72 51
-1.208330 -1.353706 5.235943 118 115 97
-1.195057 -0.970555 5.181511 137 123 112
-1.221241 -0.755211 5.293602 166 143 128
-1.231639 -0.576276 5.346308 104 97 89
-1.253937 0.319792 5.445572 58 31 8
-1.193754 -0.947890 5.188721 127 119 109
-1.191817 -0.930938 5.190282 143 134 126
-1.197564 -0.866239 5.220660 156 133 50
-1.214781 -0.662153 5.283896 108 56 23
-1.225873 -0.603993 5.332026 98 83 70
-1.186232 -1.299407 5.163542 189 155 107
-1.186329 -1.321941 5.178184 40 38 50
-1.180704 -1.073335 5.155868 158 143 134
-1.180972 -1.009328 5.161007 105 100 87
-1.187231 -0.918781 5.195430 123 113 101
-1.186975 -0.792332 5.194857 156 119 88
-1.200642 -0.676834 5.255610 100 95 73
-1.178988 -0.835850 5.172190 162 143 84
-1.187756 -0.761193 5.201360 157 102 44
-1.214261 -0.567796 5.325653 99 92 75
-1.186563 -1.366898 5.209979 113 97 107
-1.170027 -1.103983 5.140828 71 82 58
-1.175560 -1.046593 5.160153 177 166 155
-1.175644 -0.871103 5.173241 177 171 157
-1.180752 -0.792076 5.192234 159 137 119
-1.172448 -1.036128 5.160480 110 123 98
-1.176301 -0.904480 5.182361 180 174 162
-1.219516 -1.499360 5.385987 53 45 38
-1.176776 -1.319814 5.190347 49 37 50
-1.161623 -1.136185 5.126752 189 167 126
-1.173883 -0.980856 5.179053 170 162 151
-1.170573 -0.883730 5.174056 176 167 151
-1.192878 -0.670797 5.267422 129 131 108
-1.207397 -0.571363 5.322089 102 81 22
-1.219673 -1.490767 5.407061 93 82 79
-1.221067 -1.482830 5.413127 97 94 88
-1.175573 -1.383366 5.207682 105 90 102
-1.152321 -1.186409 5.101193 204 144 69
-1.163027 -1.014793 5.151619 171 161 140
-1.207910 -1.519050 5.369752 66 57 55
-1.151483 -1.164819 5.111089 235 199 55
-1.169932 -0.785697 5.199618 182 155 127
-1.169520 -0.748720 5.201096 125 78 43
-1.178504 -0.708922 5.231251 25 23 31
-1.193186 -0.638838 5.307129 135 119 104
-1.217613 -0.498650 5.416542 40 27 19
-1.329134 -0.335342 5.928750 10 13 7
-1.153281 -0.942209 5.138265 125 147 129
-1.156505 -0.929087 5.150037 52 82 58
-1.159705 -0.890737 5.163329 52 78 57
-1.326186 -0.272257 5.916100 35 31 28
-1.821668 -2.578010 8.113124 73 68 60
-1.147192 -0.949139 5.126529 131 142 125
-1.174124 -0.686980 5.250964 151 144 129
-1.196863 -0.601070 5.347534 140 113 24
-1.197327 -0.582728 5.358932 120 89 17
-1.212079 -0.499037 5.416462 44 25 16
-1.323178 -0.249873 5.921202 35 29 13
-1.168033 -0.729502 5.224773 161 124 91
-1.316903 -0.285371 5.914126 47 33 13
-1.157639 -1.330569 5.195446 97 82 104
-1.145816 -0.923067 5.144201 37 71 44
-1.151819 -0.847861 5.175459 152 160 152
-1.187594 -0.613244 5.332265 73 74 17
-1.193219 -1.523599 5.364486 71 47 29
-1.146787 -0.884343 5.163608 53 83 51
-1.162645 -0.706592 5.238338 136 143 141
-1.172296 -0.668189 5.277729 52 47 33
-1.316095 -0.334703 5.941503 39 32 18
-1.298305 -0.217583 5.861059 39 30 14
-1.295536 -0.129409 5.856173 48 26 12
-1.153046 -1.314684 5.200078 101 102 93
-1.184276 -0.582624 5.356528 49 63 7
-1.187052 -0.568038 5.370207 126 110 35
-1.130330 -0.965431 5.119147 103 119 101
-1.146697 -0.789958 5.191579 77 97 77
-1.147598 -0.777028 5.198773 181 160 143
-1.148661 -0.744368 5.207844 170 127 95
-1.171730 -0.632840 5.313929 118 90 48
-1.185131 -0.573593 5.367699 53 67 12
-1.187579 -0.549829 5.386932 124 98 15
-1.146755 -1.374939 5.198043 39 37 49
-1.131146 -0.943399 5.128649 62 91 55
-1.286016 -0.235944 5.843537 31 26 15
-1.286870 -0.212583 5.850270 34 26 15
-1.136938 -0.830358 5.180401 60 58 47
-1.153235 -0.689059 5.251732 21 29 71
-1.188341 -0.489431 5.419414 54 36 22
-1.256070 -0.463264 5.731077 62 53 47
-1.182145 -1.507964 5.395905 96 56 22
-1.119404 -0.991938 5.112091 106 105 75
-1.133228 -0.853568 5.171585 193 180 163
-1.136388 -0.806900 5.187583 71 80 61
-1.146310 -0.719948 5.229612 52 17 0
-1.185480 -0.495644 5.413558 61 44 31
-1.277983 -0.200226 5.847017 30 23 14
-1.134263 -1.359630 5.183904 70 61 67
-1.135865 -0.773141 5.202343 109 106 76
-1.158219 -0.652795 5.311142 161 145 122
-1.170097 -0.578543 5.366919 94 98 79
-1.177510 -0.532122 5.393114 129 108 46
-1.272988 -0.226009 5.835117 12 8 1
-1.276239 -0.192929 5.853619 39 30 21
-1.124712 -0.896757 5.152726 183 187 165
-1.147746 -0.669817 5.264499 119 117 130
-1.159358 -0.621967 5.327303 155 142 130
-1.177221 -0.477975 5.407359 52 40 25
-1.109775 -1.028078 5.103516 116 113 76
-1.113901 -0.954661 5.125942 65 102 69
-1.122437 -0.869681 5.171328 76 86 61
-1.153669 -0.650367 5.312754 152 135 119
-1.157932 -0.597859 5.339436 69 66 50
-1.109928 -0.968616 5.123107 73 84 62
-1.267040 -0.174628 5.866505 23 15 7
-1.133240 -1.423240 5.233901 103 58 16
-1.120336 -1.344828 5.171257 160 150 139
-1.104809 -1.011770 5.110835 102 100 68
-1.109669 -0.938323 5.134387 174 170 150
-1.123568 -0.773058 5.206344 69 75 54
-1.155176 -0.579948 5.345321 135 128 118
-1.108319 -0.925329 5.142353 94 93 73
-1.119541 -0.810698 5.191329 127 117 107
-1.133917 -0.676103 5.257787 16 27 73
-1.259722 -0.160980 5.855178 33 26 16
-1.112613 -1.338353 5.168310 85 99 92
-1.123668 -0.704911 5.233733 92 97 89
-1.149121 -1.506326 5.362922 109 95 85
-1.099972 -0.943023 5.130069 198 194 176
-1.113242 -0.791240 5.196958 120 115 98
-1.247790 -0.230944 5.836462 29 33 22
-1.117687 -1.419591 5.229981 95 54 22
-1.126140 -0.657351 5.268720 62 66 92
-1.245453 -0.218900 5.847244 82 69 62
-1.243287 -0.147010 5.836651 37 31 17
-1.241509 -0.120067 5.825661 33 23 11
-1.765193 -2.577654 8.254062 18 15 14
-1.137062 -1.480113 5.335071 112 97 89
-1.138607 -0.560976 5.348670 154 145 127
-1.146744 -0.506748 5.384483 65 66 45
-1.148491 -0.494315 5.397645 103 85 69
-1.127822 -0.608167 5.309772 156 125 103
-1.182007 -0.396544 5.575640 69 72 48
-1.097326 -1.356502 5.167494 110 85 70
-1.084175 -1.000502 5.114257 187 146 115
-1.089671 -0.927352 5.139648 85 108 66
-1.098668 -0.821410 5.182208 160 114 83
-1.104084 -0.738566 5.213926 191 119 50
-1.181038 -0.385529 5.582061 73 72 54
-1.091619 -1.338227 5.153472 78 80 76
-1.082002 -0.987722 5.116765 184 135 101
-1.092962 -0.856769 5.169494 160 106 57
-1.101676 -0.749501 5.212123 163 113 65
-1.105567 -0.647754 5.238338 122 119 133
-1.111382 -0.629800 5.272432 143 134 108
-1.141776 -0.476360 5.411826 48 31 19
-1.233012 -0.232300 5.840184 63 70 51
-1.224981 -0.129822 5.811696 31 26 14
-1.156972 0.085123 5.482375 54 40 33
-1.751636 -2.587147 8.280289 38 31 25
-1.091813 -0.721418 5.189719 206 121 33
-1.166810 -0.417807 5.549261 49 54 22
-1.078285 -0.938772 5.134343 76 105 46
-1.088441 -0.792667 5.185228 185 159 133
-1.152694 -0.430810 5.496119 27 20 12
-1.216910 -0.140828 5.798865 10 6 2
-1.097794 -1.413540 5.238853 113 70 33
-1.085462 -1.377668 5.171177 140 81 28
-1.074861 -1.322509 5.133254 67 69 62
-1.091974 -0.752227 5.218244 181 164 148
-1.125527 -0.521228 5.373315 134 132 108
-1.216439 -0.113082 5.815751 40 33 21
-1.075724 -1.265026 5.143370 118 125 118
-1.067079 -1.037650 5.107609 173 139 101
-1.075325 -0.906159 5.151653 140 146 109
-1.078686 -0.830209 5.168804 190 114 33
-1.088245 -0.765166 5.207107 197 187 172
-1.086695 -0.686310 5.208022 167 165 159
-1.069356 -0.952933 5.131139 87 115 58
-1.074109 -0.875534 5.157063 160 113 60
-1.078384 -0.709263 5.186447 178 106 25
-1.120016 -0.508074 5.379150 135 133 116
-1.121239 -0.496755 5.391197 114 105 81
-1.063598 -0.999342 5.117272 181 112 26
-1.081361 -0.649528 5.218693 34 35 73
-1.098826 -0.581247 5.295412 37 45 29
-1.203462 -0.129484 5.808554 7 4 1
-1.059238 -1.015226 5.106445 196 118 35
-1.079196 -0.745012 5.213525 199 171 144
-1.087218 -0.623462 5.246705 178 169 159
-1.100896 -0.559653 5.322846 84 97 80
-1.061146 -1.301503 5.136499 172 163 152
-1.046331 -1.051817 5.070571 196 170 59
-1.061243 -0.876512 5.142754 206 204 183
-1.070502 -0.782796 5.187436 163 109 67
-1.113336 -0.460472 5.404501 45 27 17
-1.146926 -0.357064 5.575095 98 98 85
-1.064585 -1.367997 5.170209 150 88 34
-1.044671 -1.043816 5.072615 207 198 170
-1.044735 -1.034366 5.078862 192 128 56
-1.056257 -0.897926 5.132515 221 198 175
-1.058256 -0.858370 5.147183 155 118 78
-1.067541 -0.798491 5.181646 216 182 135
-1.138682 -0.386365 5.537879 108 110 80
-1.146039 -0.351231 5.580002 52 51 40
-1.153068 -0.324214 5.613905 82 54 30
-1.160808 -0.304126 5.660877 78 35 5
-1.198708 -0.236998 5.841600 61 73 56
-1.037235 -1.094972 5.044308 185 156 77
-1.036976 -1.068462 5.056218 190 167 84
-1.047789 -0.968376 5.108823 179 125 47
-1.051702 -0.955149 5.118736 125 143 76
-1.053701 -0.885786 5.137305 213 187 154
-1.057708 -0.850536 5.152486 215 190 157
-1.066621 -0.681384 5.201268 42 46 61
-1.083387 -0.584136 5.285586 53 58 45
-1.103093 -0.506246 5.373931 97 94 79
-1.186028 -0.150477 5.799893 96 93 82
-1.094481 -1.508522 5.334215 71 63 60
-1.088378 -1.484575 5.304604 125 115 101
-1.051088 -1.298132 5.132412 132 136 131
-1.068831 -0.631192 5.226214 81 90 73
-1.078421 -1.464407 5.278454 129 106 49
-1.071743 -1.413913 5.243276 145 132 116
-1.047619 -1.328496 5.128410 155 127 120
-1.046158 -0.936921 5.126081 100 95 38
-1.051288 -0.859942 5.148520 204 201 180
-1.053783 -0.841592 5.157712 152 114 62
-1.054673 -0.819144 5.167831 171 134 77
-1.058348 -0.735301 5.181667 194 171 137
-1.098306 -0.482146 5.394068 126 121 96
-1.115808 -0.431944 5.481380 43 30 23
-1.174607 -0.208077 5.764632 66 82 63
-1.032302 -1.031587 5.081434 208 201 152
-1.037803 -0.998793 5.094608 221 152 64
-1.033165 -0.985057 5.091364 167 111 39
-1.055080 -0.704896 5.191814 200 124 36
-1.135644 -0.296157 5.602320 79 50 24
-1.173598 -0.194949 5.773847 52 67 51
-1.205201 -0.050400 5.944937 44 33 15
-1.359752 0.248406 6.719147 56 43 27
-1.032344 -1.145564 5.084964 137 130 117
-1.022831 -1.110271 5.039298 205 198 185
-1.058540 -0.643957 5.218790 175 171 159
-1.061617 -0.623352 5.234890 125 148 125
-1.117123 -0.421192 5.513503 31 22 18
-1.121949 -0.348908 5.550135 81 78 67
-1.171232 -0.163948 5.796264 144 142 123
-1.081806 -1.534129 5.334641 81 77 67
-1.042948 -1.353249 5.150713 148 85 25
-1.035349 -1.193042 5.121082 192 114 38
-1.025083 -1.054539 5.070764 205 194 179
-1.033969 -0.917145 5.110155 185 118 44
-1.061177 -0.610226 5.250488 175 172 156
-1.121763 -0.326272 5.565109 50 64 48
-1.171724 -0.137261 5.811482 123 118 105
-1.058928 -1.400411 5.243114 146 132 103
-1.033267 -1.301789 5.115518 65 70 67
-1.030583 -1.280837 5.110271 30 40 72
-1.017607 -1.123734 5.038507 205 193 178
-1.042493 -0.796616 5.166291 204 195 180
-1.044742 -0.765234 5.177665 165 157 144
-1.049728 -0.666856 5.209423 59 53 80
-1.110737 -0.391117 5.522021 120 113 91
-1.054909 -1.424980 5.234770 65 75 53
-1.033077 -1.214195 5.127196 188 172 138
-1.022334 -1.002476 5.080393 92 116 45
-1.029041 -0.896368 5.115763 195 123 39
-1.029613 -0.885124 5.122466 190 113 31
-1.033613 -0.864703 5.132126 202 117 39
-1.030925 -0.854461 5.133838 228 181 158
-1.064944 -0.578454 5.294364 167 154 138
-1.118007 -0.313061 5.571867 31 43 30
-1.125450 -0.289115 5.614082 90 88 70
-1.052172 -1.459198 5.248146 110 89 49
-1.022108 -0.913160 5.108397 196 137 37
-1.039581 -0.695649 5.189144 152 97 42
-1.070873 -0.539576 5.341127 62 67 46
-1.073424 -0.474431 5.374238 87 99 46
-1.099828 -0.422094 5.499414 33 20 9
-1.055400 -1.476231 5.276095 134 110 36
-1.048632 -1.410368 5.237833 132 130 108
-1.020894 -1.266044 5.098435 45 63 115
-1.015864 -0.987107 5.081480 139 141 90
-1.032204 -0.732522 5.176146 193 179 159
-1.067692 -0.530167 5.344885 131 122 107
-1.083927 0.467071 5.391108 70 43 15
-1.006508 -1.100024 5.055501 210 200 188
-1.011109 -1.077187 5.065612 200 188 170
-1.014529 -0.957168 5.094118 194 131 32
-1.065776 -0.516200 5.349895 161 154 140
-1.101064 -0.353264 5.544735 84 82 64
-1.156448 -0.117073 5.816036 62 71 54
-1.015935 -1.318630 5.104609 144 87 39
-1.008686 -1.043777 5.075800 113 121 88
-1.009497 -1.023570 5.075571 114 133 69
-1.014530 -0.939804 5.100970 198 141 29
-1.018405 -0.879506 5.128554 211 124 42
-1.039491 -1.435614 5.232466 109 117 85
-1.011103 -1.296405 5.091753 40 53 58
-0.998306 -1.134053 5.040973 146 137 123
-1.020667 -0.827246 5.155477 178 160 126
-1.024564 -0.743897 5.172276 71 83 56
-1.027876 -0.678710 5.188726 186 132 101
-1.092280 -0.371399 5.519790 134 125 110
-1.144546 -0.174030 5.794008 69 89 62
-1.049421 -1.533928 5.310810 91 86 72
-1.009680 -1.203261 5.103604 183 172 128
-1.001136 -1.177341 5.071525 188 117 37
-1.057801 -0.481174 5.371793 87 83 55
-0.999856 -1.011694 5.077575 117 139 70
-1.000382 -0.985734 5.081905 149 147 63
-1.010834 -0.851593 5.137418 211 165 123
-1.016068 -0.791353 5.158831 158 146 118
-1.021086 -0.687459 5.187295 177 112 53
-1.025243 -0.643884 5.219642 54 73 52
-1.034048 -0.602227 5.254079 187 185 166
-1.095890 -0.298465 5.576920 106 109 79
-1.133207 -0.213681 5.767879 63 61 46
-1.112768 0.425072 5.644616 76 41 14
-0.998240 -1.289918 5.084142 85 88 85
-0.996202 -1.076607 5.067994 86 101 88
-1.011838 -0.818516 5.151001 191 154 35
-1.128940 -0.086357 5.774819 46 35 34
-0.998529 -0.911479 5.110664 215 190 104
-1.031049 -0.570960 5.267574 158 114 87
-1.037115 -0.548293 5.297438 171 161 155
-1.036657 -0.529529 5.306908 171 161 151
-1.077376 -0.395787 5.524282 41 31 18
-1.120248 -0.247857 5.748858 88 64 5
-1.038284 -1.531818 5.317757 57 59 44
-1.019941 -1.396903 5.216964 72 84 47
-0.987905 -1.055305 5.070858 144 149 127
-1.000039 -0.789258 5.137095 230 194 70
-0.999829 -0.784864 5.137391 193 156 59
-1.004933 -0.750962 5.154495 105 110 92
-1.012528 -0.666292 5.189653 180 179 156
-1.079303 -0.342928 5.542524 22 16 33
-1.127331 -0.188915 5.788887 78 103 71
-1.125476 -0.062731 5.785146 23 10 5
-1.283819 0.118032 6.614063 56 45 28
-0.989774 -1.292285 5.084292 191 176 159
-0.994296 -0.865468 5.112899 181 139 71
-0.996252 -0.847525 5.123257 151 137 108
-0.996810 -0.835953 5.129794 219 178 50
-1.010135 -0.619287 5.210541 35 77 44
-1.080465 -0.297807 5.573618 42 44 25
-1.014745 -1.448671 5.236545 124 131 108
-1.012879 -1.378023 5.210227 146 124 95
-1.005476 -1.358051 5.180488 120 75 35
-0.987693 -1.278519 5.088816 137 126 124
-0.988626 -1.248923 5.098998 194 177 168
-0.990435 -1.198028 5.108469 143 98 45
-0.979152 -1.091204 5.056627 197 209 194
-0.984219 -1.043736 5.070371 180 189 160
-0.983837 -0.976257 5.078983 126 105 44
-1.017334 -0.593150 5.249969 89 80 34
-1.025132 -0.508634 5.303586 117 107 96
-1.068599 -0.423524 5.516755 43 30 21
-1.068530 -0.369776 5.526676 149 128 104
-1.074632 -0.318202 5.560383 63 66 72
-1.118543 -0.166773 5.798684 59 79 56
-0.986868 -0.882363 5.106910 227 220 173
-0.996761 -0.724017 5.166698 82 88 39
-1.019276 -0.545776 5.277251 176 164 158
-1.019061 -0.537710 5.283778 177 168 159
-1.109723 -0.094231 5.765117 123 124 103
-0.981153 -0.923030 5.088428 124 139 76
-0.987289 -0.798175 5.121537 203 166 28
-1.071672 -0.282525 5.586498 100 83 50
-1.112603 -0.049989 5.802383 92 73 59
-1.010332 -1.465216 5.255561 77 81 58
-0.969816 -1.123750 5.043800 119 133 119
-0.970893 -1.107916 5.051026 101 119 103
-0.975100 -0.958690 5.077583 203 132 47
-0.976761 -0.942447 5.083444 202 136 45
-0.981440 -0.822900 5.109259 142 124 46
-0.994567 -0.639750 5.177845 147 154 131
-1.009090 -0.565288 5.264669 152 102 62
-1.107384 -0.056911 5.796501 93 72 58
-1.278667 0.253629 6.692011 51 32 15
-0.992725 -1.380007 5.182737 91 90 71
-0.995869 -1.360634 5.189764 123 87 46
-0.969590 -1.062601 5.069180 99 138 95
-0.985876 -0.752117 5.154590 187 178 110
-0.984660 -0.742491 5.158667 80 100 41
-0.990822 -0.679204 5.175691 147 101 47
-0.991787 -0.615785 5.187965 43 80 46
-0.975035 -1.207818 5.114120 206 197 182
-0.970016 -0.904854 5.094202 122 148 71
-0.977489 -0.775890 5.131337 214 183 49
-0.987772 -0.722521 5.166518 113 130 65
-0.994299 -0.586353 5.227380 79 71 28
-1.028036 -0.415252 5.398774 54 34 24
-0.942273 -1.628357 4.910609 28 17 6
-0.982024 -1.340139 5.160983 156 94 37
-0.965050 -1.092915 5.061545 62 97 65
-0.966110 -1.028757 5.079371 224 212 181
-0.970421 -0.845326 5.102755 216 209 197
-0.978619 -0.654324 5.145001 182 167 145
-1.046533 -0.378991 5.515695 41 28 21
-1.074382 -0.251671 5.664811 129 119 105
-1.087247 -0.141983 5.734553 56 79 52
-1.007468 -1.518292 5.304611 95 71 60
-0.971814 -0.776819 5.130039 204 178 65
-1.047747 -0.343064 5.539892 154 146 128
-1.088460 -0.109285 5.757754 171 172 151
-0.982589 -1.419528 5.186853 56 71 34
-0.962241 -1.294424 5.092131 159 109 80
-0.957929 -1.087828 5.065958 71 108 70
-0.961884 -1.046099 5.077477 123 152 115
-0.961443 -1.009320 5.080060 218 218 197
-0.958476 -0.970405 5.075676 211 130 43
-0.962878 -0.920216 5.090599 96 120 60
-0.975451 -0.628133 5.165045 91 98 77
-0.983652 -0.590404 5.209538 180 182 153
-1.085013 -0.119914 5.751175 123 127 105
-0.914987 -1.540514 4.851700 134 98 26
-0.962382 -1.209008 5.109783 140 127 140
-0.952800 -1.124290 5.050716 129 121 101
-0.961547 -0.901154 5.098294 122 151 77
-0.959742 -0.876588 5.101077 148 150 117
-0.963629 -0.811987 5.122534 169 154 78
-0.964241 -0.799049 5.131316 167 154 107
-0.965931 -0.789794 5.131088 145 128 59
-0.969924 -0.723608 5.161126 115 133 66
-0.974160 -0.677078 5.179077 134 84 42
-0.987224 -0.556202 5.256971 174 150 138
-1.014210 -0.398298 5.390412 44 26 12
-1.043819 -0.309219 5.551839 46 36 45
-1.059004 -0.260669 5.631348 122 97 24
-1.083782 -0.095787 5.769839 78 96 79
-1.085728 -0.080391 5.780857 151 155 140
-0.972991 -1.400017 5.167247 66 81 42
-0.968233 -1.328106 5.146441 182 103 29
-0.955594 -1.006295 5.080510 189 178 152
-0.954378 -0.951814 5.080668 226 143 47
-0.959161 -0.889548 5.103056 89 121 64
-0.969462 -0.706235 5.170544 179 146 101
-1.089333 -0.182965 5.822599 105 106 79
-0.963838 -0.750319 5.145533 177 162 72
-0.985477 -0.530588 5.281015 140 137 155
-1.069733 -0.150488 5.734121 67 91 57
-1.134258 0.029245 6.081914 22 14 6
-1.239583 0.263586 6.655737 51 33 13
-0.994060 -1.550204 5.322140 83 79 46
-0.962255 -1.383201 5.155541 98 95 77
-0.953583 -1.187661 5.100770 163 139 94
-0.965022 -0.624170 5.186162 118 119 99
-0.980162 -0.554585 5.261621 92 52 20
-0.999838 -0.422366 5.374671 74 53 42
-1.026207 -0.352156 5.508776 145 131 106
-0.963489 -1.353408 5.173566 147 120 86
-0.941889 -1.101426 5.062944 95 105 73
-0.942834 -1.080485 5.067183 82 98 65
-0.943959 -0.973883 5.073592 199 120 34
-0.959792 -0.650274 5.173922 197 187 165
-0.993905 -0.438314 5.355618 119 103 88
-1.014280 -0.385524 5.457429 40 25 16
-1.038736 -0.266488 5.592313 128 114 95
-1.067338 -0.114277 5.758050 64 93 62
-0.947675 -1.192797 5.099710 212 199 184
-0.940082 -1.112496 5.060394 220 208 189
-0.943955 -0.934241 5.084651 234 205 157
-0.944115 -0.889390 5.104547 161 154 114
-0.939453 -0.862844 5.091168 220 210 198
-0.950739 -0.736775 5.158021 138 143 104
-0.975898 -0.509769 5.299583 80 72 84
-0.932192 -0.988384 5.066140 175 144 94
-0.941814 -0.815343 5.115409 73 91 117
-0.990136 -0.403735 5.385043 64 45 34
-1.024972 -0.249912 5.573362 135 108 49
-1.055720 -0.207595 5.747840 140 109 25
-1.065142 -0.049849 5.802712 25 25 21
-1.102901 0.027483 6.012654 46 27 16
-0.947306 -1.389038 5.155256 125 124 98
-0.930235 -1.124908 5.064138 214 199 185
-0.930874 -1.038496 5.071555 232 216 203
-0.931759 -1.030158 5.073342 228 221 205
-0.938659 -0.832481 5.104095 85 105 121
-0.938830 -0.805207 5.122160 154 159 171
-0.949081 -0.635357 5.179716 158 149 135
-1.054863 -0.093005 5.768181 42 69 44
-1.063772 -0.020393 5.813819 70 61 53
-0.926490 -0.973262 5.065187 189 152 111
-0.926921 -0.964185 5.067378 193 146 97
-0.927452 -0.951387 5.071147 240 213 162
-1.006405 -0.319617 5.526700 137 130 115
-1.045181 -0.153315 5.738369 146 142 113
-1.048211 -0.131951 5.754261 69 99 67
-1.058496 -0.026082 5.803589 69 64 56
-0.959440 -1.472699 5.253979 101 104 76
-0.944979 -1.361255 5.173873 52 65 50
-0.923162 -1.106724 5.054197 189 181 166
-0.927381 -0.909202 5.084096 222 198 173
-0.927893 -0.860603 5.091584 220 212 195
-0.959764 -0.547435 5.276235 188 161 147
-0.980301 -0.397990 5.380980 71 47 35
-0.985121 -0.390006 5.407805 60 35 22
-1.006895 -0.298724 5.540350 121 113 104
-1.046859 -0.081420 5.769438 51 80 50
-0.957164 -1.517155 5.259553 92 77 46
-0.919429 -1.074553 5.056791 226 217 205
-0.918779 -1.069920 5.057737 226 218 205
-0.941408 -0.696149 5.180865 196 157 121
-0.958600 -0.534170 5.289732 43 27 55
-0.953979 -1.538604 5.256501 135 105 45
-0.935484 -1.394901 5.158600 184 154 132
-0.921189 -0.924651 5.078731 188 105 19
-0.924835 -0.842000 5.102091 90 95 100
-0.940599 -0.623129 5.192153 35 35 56
-0.947427 -0.579343 5.248120 69 77 50
-0.968219 -0.448219 5.348432 67 79 61
-1.087331 0.036330 6.024673 68 47 35
-1.089788 0.046218 6.036080 50 33 15
-0.941730 -1.839575 5.220933 75 65 31
-0.916072 -1.296658 5.067134 189 112 35
-0.919296 -0.881918 5.086288 219 214 194
-0.932964 -0.647588 5.179664 186 136 105
-1.003559 -0.233770 5.575901 137 121 83
-1.188288 0.328157 6.605511 72 56 31
-1.183941 0.342728 6.592152 71 54 35
-0.941545 -1.450431 5.222373 162 155 126
-0.911677 -1.125664 5.061785 233 202 181
-0.915952 -0.893345 5.086289 224 217 197
-0.919945 -0.813638 5.120087 25 44 99
-0.922720 -0.740045 5.136332 204 198 186
-0.958788 -0.458845 5.341907 177 182 167
-0.967137 -0.401133 5.390681 67 45 34
-0.985632 -0.341943 5.494452 110 96 38
-0.990033 -0.308849 5.521034 113 107 96
-0.998367 -0.260393 5.563988 118 110 99
-1.025273 -0.164109 5.729986 125 100 43
-0.947451 -1.557915 5.269142 129 94 26
-0.930398 -1.355111 5.180794 163 165 153
-0.905730 -1.004068 5.055111 226 215 205
-0.922525 -0.766285 5.142455 208 201 191
-0.922979 -0.673960 5.156425 228 165 93
-0.941364 -0.578592 5.259419 182 171 150
-0.956072 -0.484129 5.323618 69 87 65
-0.975950 -0.386044 5.454214 53 28 16
-0.973134 -0.375734 5.449896 52 34 19
-0.978256 -0.367126 5.461690 66 48 37
-0.981734 -0.327078 5.495268 58 64 47
-1.017044 -0.178351 5.693001 132 122 102
-1.073601 0.037017 6.021011 91 69 55
-1.157776 0.183742 6.517225 55 32 9
-0.924106 -1.417338 5.165514 145 85 23
-0.905005 -1.024517 5.063075 236 227 209
-0.902698 -0.986485 5.053110 228 215 208
-0.909369 -0.947385 5.076278 214 134 48
-0.917098 -0.725553 5.141982 218 210 199
-0.923410 -0.646283 5.178217 169 111 47
-0.949911 -0.494544 5.318085 184 181 167
-0.963161 -0.401206 5.391850 59 39 28
-1.022692 -0.068858 5.735904 35 69 44
-1.030782 -0.005831 5.783435 97 61 33
-1.173995 0.357824 6.611252 50 32 17
-0.916256 -0.719856 5.144606 219 211 200
-0.952895 -0.428293 5.362518 53 59 36
-1.020336 -0.045963 5.752091 161 156 139
-1.126217 0.117861 6.372348 49 37 21
-0.907158 -1.732814 5.095117 135 73 27
-0.912003 -1.722574 5.112321 159 124 35
-0.934190 -1.463026 5.246032 123 111 83
-0.901632 -1.058425 5.073564 197 190 174
-0.924789 -0.597658 5.209074 185 186 186
-0.938078 -0.541775 5.285194 180 151 129
-1.141983 0.184873 6.483857 58 36 13
-1.168664 0.369035 6.615627 49 28 9
-0.928669 -1.532087 5.234296 74 79 50
-0.897009 -1.124165 5.066790 237 208 182
-0.896426 -1.100554 5.063475 219 214 197
-0.900305 -0.878373 5.087105 224 217 203
-0.905068 -0.832124 5.110018 107 104 118
-0.909112 -0.787217 5.138228 148 143 154
-0.918100 -0.625736 5.191566 145 152 161
-0.952976 -0.400258 5.399397 66 46 32
-0.962428 -0.377877 5.455377 56 38 22
-0.985467 -0.226090 5.586431 125 107 88
-1.002340 -0.135893 5.680766 132 127 87
-1.007367 -0.065342 5.733707 45 77 53
-0.902080 -1.722069 5.100816 174 141 32
-0.893049 -1.107742 5.061872 195 185 167
-0.894754 -0.934293 5.075079 226 188 132
-0.908152 -0.713847 5.146993 220 212 200
-0.909781 -0.686319 5.161476 181 137 94
-0.922928 -0.578944 5.251827 196 187 173
-0.937105 -0.482558 5.326342 134 132 117
-0.939827 -0.458162 5.342871 46 84 46
-1.002846 -0.090197 5.717752 53 88 56
-0.924148 -1.584560 5.250113 126 106 68
-0.924911 -1.500768 5.245254 53 52 60
-0.926341 -1.466562 5.247880 148 131 108
-0.890506 -0.939428 5.069412 214 183 137
-0.914751 -0.590503 5.220328 169 158 165
-0.964460 -0.292709 5.509380 93 105 85
-1.161161 0.369788 6.645974 58 32 16
-0.896115 -1.713457 5.107023 162 127 24
-0.919642 -1.554580 5.238268 132 89 36
-0.895721 -0.814233 5.118060 102 111 143
-0.940127 -0.401848 5.385886 67 48 34
-0.966944 -0.238067 5.549257 151 143 134
-1.010998 -0.000062 5.799628 95 65 28
-0.885078 -0.955735 5.064197 216 179 135
-0.897519 -0.774661 5.142982 209 202 194
-0.926330 -0.498364 5.315432 155 146 135
-0.928924 -0.477881 5.326731 120 117 105
-0.932645 -0.437763 5.356531 50 85 50
-1.002545 -0.020792 5.772679 80 71 72
-1.096305 0.101738 6.329898 47 27 22
-0.925766 -1.868712 5.305676 137 130 116
-0.891728 -1.709293 5.109219 151 112 16
-0.911000 -1.545655 5.239532 113 82 55
-0.913151 -1.491747 5.247666 121 106 107
-0.903223 -1.433504 5.185053 161 139 98
-0.876527 -1.051535 5.045374 116 117 97
-0.884111 -0.863727 5.083284 166 131 103
-0.913282 -0.575009 5.261003 197 186 165
-0.953187 -0.328479 5.492402 162 158 140
-0.980235 -0.165131 5.659867 127 104 32
-0.902663 -1.917269 5.194935 62 58 55
-0.891353 -1.372739 5.136888 40 62 45
-0.882263 -0.849930 5.091242 213 176 139
-0.901842 -0.604147 5.208487 30 50 103
-0.913790 -0.540294 5.288688 167 115 77
-0.954868 -0.255271 5.535700 130 107 73
-0.980830 -0.140724 5.680845 104 94 55
-0.989754 -0.066093 5.734811 193 197 171
-1.016709 0.039356 5.898183 86 71 57
-1.148344 0.370972 6.657249 56 31 12
-0.906572 -1.885287 5.247639 98 87 78
-0.908663 -1.532510 5.242853 147 146 127
-0.877120 -1.117120 5.067096 229 212 196
-0.876286 -0.919826 5.065250 228 219 209
-0.915785 -0.514758 5.309853 191 183 173
-0.918019 -0.471715 5.331164 116 118 100
-1.084010 0.122142 6.335385 61 49 40
-1.094535 0.248831 6.392718 48 25 8
-0.895207 -1.882684 5.197996 117 100 80
-0.931602 -1.853619 5.395717 179 143 48
-0.881569 -1.707511 5.101354 174 139 26
-0.870171 -1.022571 5.052928 187 177 144
-0.926043 -0.369627 5.393570 57 36 23
-0.939695 -0.351166 5.475536 58 42 29
-0.985856 -0.048849 5.750065 119 133 115
-0.881556 -1.394251 5.133177 185 167 142
-0.868768 -1.003531 5.059661 180 162 129
-0.870046 -0.900677 5.075676 189 166 134
-0.881892 -0.704100 5.152752 142 152 136
-0.912377 -0.495016 5.325131 163 154 143
-0.913416 -0.408601 5.344964 107 98 78
-0.915234 -0.390448 5.350019 72 50 40
-0.940674 -0.292933 5.508651 65 76 46
-1.005561 0.023851 5.882796 116 92 42
-0.887771 -1.908890 5.189347 31 29 30
-0.922784 -1.878888 5.385507 112 84 36
-0.872073 -1.726189 5.079237 98 62 31
-0.898121 -1.502268 5.247278 97 76 92
-0.876171 -0.804180 5.119145 198 193 191
-0.876149 -0.785583 5.129084 211 211 203
-0.880411 -0.688130 5.162392 210 207 184
-0.886269 -0.604051 5.198009 24 42 98
-0.897092 -0.567514 5.256870 163 154 144
-0.966578 -0.147319 5.676728 111 95 39
-0.973495 -0.106792 5.710318 60 91 56
-0.860487 -1.099929 5.053878 219 211 202
-0.877928 -0.656734 5.159836 223 145 50
-0.906537 -0.385196 5.354204 71 50 36
-0.881470 -1.889390 5.185338 86 72 51
-0.891569 -1.527939 5.245593 48 56 64
-0.859464 -0.956092 5.063441 176 170 151
-0.884264 -0.579287 5.216360 43 44 89
-0.902713 -0.411921 5.337816 72 78 47
-0.977337 -0.019794 5.773371 168 172 157
-0.996257 0.052807 5.906647 91 74 57
-0.891684 -1.610504 5.260828 135 117 85
-0.860784 -1.135746 5.091582 221 139 54
-0.852021 -1.076457 5.036090 227 218 203
-0.860463 -0.901392 5.078040 222 216 203
-0.864934 -0.841863 5.118074 220 136 46
-0.867442 -0.793623 5.127362 216 211 203
-0.866715 -0.776496 5.134169 219 211 207
-0.865146 -0.754775 5.127707 169 163 151
-0.868638 -0.725259 5.135489 90 99 82
-0.886181 -0.531519 5.247594 168 107 49
-0.893369 -0.443370 5.296726 70 89 61
-0.939947 -0.199756 5.588961 115 105 77
-0.972674 -0.006838 5.783715 76 63 62
-1.072383 0.242154 6.385716 58 38 12
-0.873916 -1.904434 5.167640 29 23 25
-0.851315 -1.063546 5.043992 230 223 207
-0.860361 -0.863817 5.106487 218 133 43
-0.862767 -0.847867 5.116789 212 130 44
-0.873950 -0.597145 5.199378 52 80 143
-0.889342 -0.487225 5.280581 150 146 135
-0.898687 -0.387618 5.358006 66 47 34
-0.870313 -1.873836 5.168340 132 122 111
-0.903797 -1.879380 5.376613 126 127 104
-0.882718 -1.576991 5.254637 157 145 131
-0.850318 -0.889600 5.080997 220 222 200
-0.928970 -0.226843 5.556513 151 81 14
-0.947337 -0.158425 5.657620 64 70 59
-0.947999 -0.142842 5.671946 65 76 57
-0.957964 -0.092393 5.723410 82 114 76
-0.958893 -0.079264 5.733956 77 96 71
-1.116656 0.321660 6.694735 73 57 37
-0.851682 -1.178424 5.088469 161 153 176
-0.848529 -1.116902 5.067113 224 174 141
-0.956455 -0.067303 5.744014 85 105 77
-1.046882 0.187964 6.303494 32 21 7
-0.878147 -1.562264 5.246485 86 107 104
-0.951118 -1.397420 5.707934 148 165 164
-0.954156 -1.368382 5.733261 26 46 104
-0.844792 -1.016531 5.065855 77 126 82
-0.843623 -0.913004 5.065634 127 140 119
-0.853053 -0.819060 5.117838 188 134 93
-0.872117 -0.526791 5.250797 180 140 116
-0.913167 -0.350750 5.493605 51 35 22
-0.918374 -0.275236 5.517480 42 48 69
-0.988425 0.100718 5.951417 72 49 38
-1.056637 0.234245 6.391543 57 40 17
-0.860527 -1.907929 5.170346 61 57 52
-0.866001 -1.871587 5.189660 152 144 134
-0.866155 -1.795056 5.208246 136 117 53
-0.868354 -1.654600 5.210310 103 96 88
-0.862904 -0.602951 5.198066 53 76 149
-0.864661 -0.581900 5.211589 25 51 117
-0.955501 -0.037174 5.767470 74 113 73
-0.962337 -0.001631 5.815568 51 53 38
-0.967938 0.015527 5.851535 102 96 97
-0.889382 -1.883929 5.363403 142 138 131
-0.862331 -1.680856 5.194339 103 95 83
-0.870442 -1.482821 5.245953 161 96 39
-0.837230 -1.056281 5.050768 221 218 201
-0.838758 -1.023531 5.065365 66 117 78
-0.840486 -1.002888 5.073987 71 107 80
-0.838377 -0.961466 5.067285 219 209 197
-0.835906 -0.929065 5.055108 201 196 179
-0.850103 -0.707792 5.150446 57 104 72
-0.854978 -0.679472 5.165984 139 140 101
-0.908154 -0.349471 5.495411 52 33 19
-1.063826 0.283612 6.495030 70 56 32
-0.963638 0.310846 5.837260 55 34 13
-0.860847 -1.640646 5.224512 151 142 128
-0.865835 -1.625049 5.232382 83 93 71
-0.941504 -1.407531 5.705693 217 207 190
-0.948886 -1.352532 5.752181 31 40 85
-0.836966 -1.008482 5.072607 65 110 77
-0.846960 -0.728545 5.140117 162 158 146
-0.858271 -0.597620 5.201471 45 81 147
-0.864069 -0.563742 5.250953 178 178 181
-0.880481 -0.428662 5.348619 84 84 65
-0.918559 -0.197043 5.594699 160 137 103
-0.938151 -0.100516 5.711271 92 106 81
-0.970943 0.080097 5.921284 108 91 78
-1.039935 0.146374 6.353645 51 48 32
-1.045334 0.232089 6.392333 55 38 14
-0.835070 -0.869707 5.085873 225 209 155
-0.839402 -0.755343 5.124351 200 194 185
-0.845544 -0.705898 5.152723 63 110 79
-0.897682 -0.319339 5.487925 90 77 60
-0.906627 -0.248855 5.539993 162 161 161
-0.936527 -0.084621 5.729152 90 120 79
-0.945941 -0.024894 5.776433 45 79 46
-0.972729 0.105073 5.945451 63 42 28
-1.044104 0.244732 6.422193 52 36 16
-1.051360 0.261409 6.453249 47 31 11
-0.850790 -1.918701 5.185309 21 20 16
-0.855852 -1.789603 5.211143 95 67 44
-0.831724 -0.834283 5.095450 210 130 39
-0.859160 -0.510612 5.266657 193 185 173
-0.874643 -0.422802 5.365314 97 100 74
-0.900454 -0.278357 5.516272 63 36 52
-0.914986 -0.177286 5.622886 154 145 129
-0.927788 -0.118846 5.684340 63 80 56
-1.092057 0.330693 6.710316 53 36 20
-0.858323 -1.727674 5.245693 163 92 30
-0.854843 -1.722328 5.243725 180 100 30
-0.849047 -1.667944 5.196594 132 127 108
-0.850097 -1.578017 5.210818 46 78 51
-0.840906 -1.368511 5.141312 186 174 160
-0.940209 -1.348371 5.765132 44 53 100
-0.831726 -0.781899 5.110547 218 211 209
-0.873117 -0.406770 5.375309 79 76 41
-0.874112 -0.385931 5.380083 75 51 39
-0.923032 -0.108837 5.693623 138 137 117
-0.925448 -0.100820 5.700997 151 153 132
-0.962257 0.057922 5.924986 47 39 35
-0.845035 -1.654000 5.196516 83 72 71
-0.847862 -1.643144 5.209333 59 47 61
-0.848428 -1.620310 5.213655 92 105 80
-0.820403 -1.273001 5.049221 207 133 40
-0.867145 -0.449775 5.351118 196 188 175
-0.883297 -0.359016 5.454005 68 47 36
-0.896884 -0.248977 5.544231 165 161 159
-0.900924 -0.211438 5.575901 112 78 22
-0.844651 -1.573503 5.202242 57 86 58
-0.835867 -1.309807 5.149641 166 144 110
-0.932902 -1.361934 5.758862 25 41 90
-0.825222 -0.807409 5.104058 209 131 53
-0.832995 -0.711691 5.146722 106 112 88
-0.885828 -0.312869 5.490817 133 85 54
-1.033853 0.244793 6.433313 53 37 14
-0.839286 -1.589540 5.195321 41 71 47
-0.929648 -1.370223 5.751714 35 62 140
-0.933352 -1.336286 5.776847 167 151 180
-0.817568 -1.010231 5.073622 63 111 73
-0.820628 -0.991112 5.096922 90 120 89
-0.828083 -0.700030 5.150458 159 154 135
-0.917859 -0.072497 5.709134 74 100 70
-1.039106 0.277875 6.502635 71 56 33
-0.920879 -1.410361 5.724737 220 173 137
-0.921117 -1.390756 5.739934 44 69 139
-0.843183 -0.517094 5.262990 183 164 147
-0.874152 -0.342775 5.453248 59 32 28
-0.890582 -0.226486 5.568085 160 159 152
-0.895771 -0.191691 5.594465 168 154 144
-0.913138 -0.057529 5.705894 89 112 78
-0.947578 0.083108 5.932138 52 46 47
-0.947571 0.101375 5.940879 103 86 63
-0.808636 -1.772102 5.030979 159 151 139
-0.928863 -1.299797 5.795740 218 137 47
-0.801242 -1.099761 5.010105 232 179 142
-0.819569 -0.766456 5.123188 181 171 163
-0.840488 -0.507729 5.267359 89 99 84
-0.856272 -0.438027 5.357955 198 191 175
-0.885515 -0.233951 5.557294 95 95 102
-0.901582 -0.152145 5.655916 139 137 109
-0.840367 -1.744808 5.249708 196 149 43
-0.822870 -1.407730 5.149472 151 117 96
-0.821540 -1.373604 5.147981 173 159 137
-0.923591 -1.340395 5.779473 90 81 112
-0.811321 -0.820985 5.099530 201 128 39
-0.823361 -0.666986 5.167545 206 174 153
-0.856237 -0.404892 5.384853 172 155 117
-0.855664 -0.377745 5.390389 66 45 33
-0.902476 -0.117280 5.684459 50 58 34
-0.938706 0.056234 5.925098 128 112 109
-1.033781 0.300142 6.540455 38 23 10
-0.828153 -1.573611 5.201307 48 78 55
-0.815218 -0.730679 5.135988 229 221 210
-0.907586 0.001417 5.743663 176 179 153
-0.930481 0.047422 5.887589 130 129 108
-0.822339 -1.680755 5.185114 164 107 60
-0.825257 -1.544216 5.201796 171 159 152
-0.822842 -1.467915 5.191660 128 108 71
-0.818288 -1.317713 5.157427 199 180 163
-0.816972 -1.310605 5.154116 194 176 152
-0.806807 -0.806544 5.104919 215 142 65
-0.813190 -0.719598 5.141359 228 215 209
-0.846882 -0.439575 5.360227 194 187 171
-0.873864 -0.356092 5.531162 57 39 25
-0.876129 -0.226124 5.564565 99 99 107
-0.892390 -0.125918 5.669511 55 59 39
-0.900068 -0.088212 5.711779 88 100 75
-0.997877 0.204892 6.369349 116 99 86
-0.824367 -1.906750 5.226649 109 91 67
-0.812958 -1.377536 5.149005 66 75 63
-0.814526 -1.338230 5.156468 165 129 108
-0.913939 -1.318658 5.797746 178 166 133
-0.799899 -0.902079 5.070788 162 157 116
-0.812399 -0.616971 5.169908 211 199 180
-0.847603 -0.375471 5.396904 75 54 36
-0.932037 0.123541 5.952943 74 51 39
-0.817641 -1.658241 5.190133 137 115 85
-0.818141 -1.596642 5.190114 136 127 111
-0.817145 -1.549656 5.197946 61 84 71
-0.796746 -0.869007 5.085290 232 218 199
-0.993135 0.198118 6.369873 119 100 77
-1.012382 0.263317 6.502911 55 44 20
-0.803146 -0.697047 5.155097 227 218 209
-0.809694 -0.591115 5.186804 44 75 140
-0.810335 -0.571073 5.195902 141 126 143
-0.813749 -0.546787 5.219918 204 196 177
-0.824951 -0.480514 5.287208 145 140 124
-0.855986 -0.332160 5.469986 64 48 33
-0.853439 -0.304149 5.476237 147 128 85
-0.862426 -0.263275 5.527299 137 117 70
-0.878420 -0.159448 5.626890 93 85 71
-0.888723 -0.049403 5.709015 83 104 77
-0.782484 -1.747204 5.004337 157 151 117
-0.805925 -1.785437 5.160308 156 152 126
-0.809000 -1.785335 5.175237 88 82 47
-0.791877 -0.968023 5.075081 157 154 134
-0.788264 -0.925344 5.058437 229 218 205
-0.836187 -0.416603 5.387084 167 155 133
-0.861628 -0.247079 5.541017 155 96 52
-0.880360 -0.118177 5.676922 36 29 50
-0.921839 0.089600 5.949805 41 33 30
-0.924577 0.121997 5.955051 81 59 45
-0.809798 -1.539214 5.201257 113 104 99
-0.850057 -0.290235 5.490277 144 96 55
-0.864234 -0.195921 5.584950 76 80 53
-0.797085 -1.396765 5.148928 108 113 95
-0.796583 -1.358728 5.157756 193 184 155
-0.890777 -1.398716 5.747329 140 139 133
-0.784234 -0.888080 5.075787 132 134 110
-0.790649 -0.759114 5.120643 210 194 177
-0.793884 -0.733543 5.137053 194 173 128
-0.809994 -0.514550 5.257348 125 93 45
-0.855678 -0.357449 5.538690 52 33 19
-0.863174 -0.176020 5.598959 118 121 101
-0.875839 -0.096088 5.699802 107 116 109
-0.770475 -1.749528 4.992199 155 151 141
-0.780287 -1.685871 5.043579 194 126 47
-0.803689 -1.623391 5.202201 143 120 61
-0.801753 -1.570976 5.192232 194 180 164
-0.797218 -1.454488 5.175343 141 105 65
-0.776719 -1.049639 5.044699 212 218 187
-0.783199 -0.871821 5.083829 116 132 76
-0.784500 -0.815638 5.090483 219 195 170
-0.785636 -0.774772 5.107190 223 221 204
-0.840319 -0.296435 5.472826 171 171 152
-0.872601 -0.086078 5.704754 149 149 135
-0.878541 -0.020935 5.727077 193 194 171
-0.913182 0.119389 5.967114 110 90 75
-0.973507 0.186426 6.368542 119 80 49
-0.996429 0.291354 6.546895 48 34 17
-0.791068 -1.318425 5.144433 176 149 124
-0.781252 -1.289743 5.084202 200 182 151
-0.887357 -1.372750 5.766607 164 150 171
-0.890715 -1.313545 5.805193 164 116 61
-0.775604 -0.919361 5.064353 233 223 212
-0.787616 -0.708998 5.148899 207 171 118
-0.818685 -0.407731 5.365626 166 136 85
-0.823659 -0.400530 5.383777 158 125 62
-0.879939 -1.386469 5.760045 200 195 190
-0.785523 -0.714168 5.146493 216 181 110
-0.790340 -0.587791 5.187087 62 91 144
-0.810856 -0.438015 5.324080 175 159 143
-0.813580 -0.430884 5.337409 178 165 149
-0.819941 -0.362423 5.385962 67 47 33
-0.821034 -0.355754 5.385328 63 43 29
-0.827304 -0.333776 5.445903 44 27 14
-0.829614 -0.327226 5.449117 57 43 30
-0.908805 0.144375 5.979569 56 34 21
-0.768252 -1.009396 5.058280 105 156 102
-0.772252 -0.909779 5.067800 230 224 212
-0.777572 -0.784114 5.105408 219 211 194
-0.812889 -0.416791 5.343350 168 155 126
-0.858370 -0.122457 5.674174 86 79 87
-0.870451 -0.009759 5.736060 64 80 57
-0.787467 -1.785705 5.178802 105 98 67
-0.790168 -1.773636 5.202476 185 124 55
-0.793227 -1.759264 5.211509 199 146 35
-0.769574 -1.658159 5.061121 143 88 21
-0.763637 -1.093350 5.025864 240 191 161
-0.760568 -1.062142 5.028685 235 227 209
-0.778224 -0.726844 5.139158 228 197 56
