ply
format ascii 1.0
element vertex 1201
property float x
property float y
property float z
property uchar red
property uchar green
property uchar blue
end_header
-0.880798 -1.388637 5.766469 200 195 190
-0.786129 -0.715435 5.151348 216 181 110
-0.790947 -0.588955 5.192004 62 91 144
-0.811491 -0.439071 5.329256 175 159 143
-0.814219 -0.431936 5.342612 178 165 149
-0.820589 -0.363421 5.391260 67 47 33
-0.821682 -0.356746 5.390621 63 43 29
-0.827965 -0.334757 5.451324 44 27 14
-0.830277 -0.328201 5.454542 57 43 30
-0.909599 0.143802 5.986130 56 34 21
-0.768854 -1.010910 5.063025 105 156 102
-0.772851 -0.911203 5.072538 230 224 212
-0.778171 -0.785435 5.110196 219 211 194
-0.813527 -0.417831 5.348567 168 155 126
-0.859082 -0.123269 5.680069 86 79 87
-0.871176 -0.010468 5.742075 64 80 57
-0.788172 -1.788070 5.184062 105 98 67
-0.790878 -1.775998 5.207782 185 124 55
-0.793940 -1.761615 5.216828 199 146 35
-0.770233 -1.660323 5.066075 143 88 21
-0.764237 -1.094932 5.030563 240 191 161
-0.761164 -1.063696 5.033386 235 227 209
-0.778825 -0.728123 5.144008 228 197 56
-0.792321 -0.536845 5.235859 172 146 130
-0.795680 -0.508105 5.270080 191 178 159
-0.798494 -0.491596 5.289275 107 115 81
-0.822677 -0.303120 5.451265 92 77 68
-0.786394 -1.563782 5.199907 173 167 140
-0.873632 -1.363955 5.788896 193 183 176
-0.765996 -0.990747 5.073400 92 137 92
-0.777636 -0.629179 5.161413 223 145 45
-0.785558 -0.562440 5.208276 94 97 73
-0.801460 -0.463462 5.309105 150 138 131
-0.858450 -0.085133 5.714640 62 70 75
-0.889856 0.069082 5.930127 137 143 120
-0.762150 -1.683473 5.042370 207 152 38
-0.768418 -1.645276 5.101486 166 117 77
-0.769703 -1.634248 5.116262 153 140 104
-0.778868 -1.600683 5.161388 202 180 55
-0.786600 -1.506794 5.208457 124 131 108
-0.778609 -1.365312 5.164506 162 150 131
-0.758251 -1.051272 5.038288 85 100 81
-0.763327 -0.973516 5.076481 170 194 167
-0.765495 -0.885283 5.089573 119 129 88
-0.770507 -0.755074 5.126041 235 198 61
-0.772672 -0.709579 5.154541 225 193 53
-0.774617 -0.695713 5.163918 196 172 108
-0.777268 -0.662441 5.183399 187 166 143
-0.806539 -0.367069 5.380930 73 52 38
-0.816456 -0.321246 5.453105 56 43 28
-0.863665 0.017524 5.768298 175 183 163
-0.891158 0.110382 5.950035 70 75 47
-0.778404 -1.451113 5.178320 90 105 77
-0.763393 -0.865255 5.101602 122 152 79
-0.765904 -0.856772 5.102942 140 156 105
-0.766824 -0.782144 5.114702 235 209 83
-0.770954 -0.641279 5.153744 226 147 59
-0.779331 -0.555155 5.215028 189 194 172
-0.810922 -0.335795 5.427864 52 36 21
-0.836189 -0.171660 5.606153 160 152 122
-0.781014 -1.774155 5.214222 213 170 48
-0.752309 -1.662604 5.049938 172 132 30
-0.765341 -1.633649 5.118497 162 155 138
-0.768762 -1.622253 5.132014 191 165 62
-0.776101 -1.586521 5.183796 197 168 41
-0.771515 -1.367959 5.165592 109 101 78
-0.755355 -1.123601 5.064627 223 139 51
-0.748784 -1.070564 5.032310 235 226 209
-0.776663 -0.538557 5.228719 184 186 171
-0.800554 -0.360369 5.379991 56 40 24
-0.850738 -0.048705 5.729639 85 102 83
-0.745493 -1.747427 4.998129 165 157 143
-0.760006 -1.646888 5.103653 174 120 73
-0.765116 -1.614976 5.145224 177 146 30
-0.776235 -1.541786 5.210234 124 115 100
-0.767982 -1.343030 5.164455 189 115 34
-0.750847 -1.238443 5.057248 233 205 179
-0.754245 -1.183739 5.073649 193 192 183
-0.755778 -1.148192 5.079112 160 112 51
-0.759767 -0.761194 5.125937 208 168 46
-0.767253 -0.661199 5.174860 179 162 144
-0.765858 -0.627587 5.163948 232 153 53
-0.799958 -0.350426 5.383570 75 57 45
-0.805521 -0.321240 5.450784 56 39 29
-0.843701 -0.122273 5.683266 109 100 94
-0.849584 -0.021261 5.745012 83 108 77
-0.872402 0.489804 5.902257 71 48 16
-0.749729 -1.662341 5.048715 184 144 38
-0.772308 -1.551968 5.207339 177 151 87
-0.773460 -1.516509 5.211105 127 144 110
-0.767911 -1.488020 5.183318 200 196 175
-0.763173 -1.384368 5.160268 56 86 56
-0.760819 -1.312535 5.134738 196 122 36
-0.752910 -1.173666 5.076826 199 200 192
-0.750724 -0.984642 5.076511 130 165 123
-0.753512 -0.953928 5.087268 234 225 212
-0.760743 -0.738896 5.138685 246 211 72
-0.765571 -0.598840 5.182948 72 51 75
-0.775620 -0.507061 5.258452 162 118 74
-0.787166 -0.412664 5.343826 183 173 139
-0.802063 -0.289216 5.443123 140 125 90
-0.806541 -0.261876 5.477856 102 76 32
-0.808941 -0.251049 5.487071 71 50 39
-0.822433 -0.188039 5.587541 130 127 105
-0.876806 0.126906 5.951974 117 98 79
-0.899812 0.253797 6.111042 15 13 5
-0.898429 0.276085 6.120147 42 28 18
-0.744981 -1.687006 5.031886 224 188 49
-0.768657 -1.567552 5.200664 210 174 53
-0.759152 -1.412794 5.159894 197 190 171
-0.760903 -1.403357 5.158844 111 126 95
-0.745997 -1.240071 5.057606 196 146 108
-0.747774 -1.127525 5.077348 221 141 50
-0.751114 -0.938507 5.089569 230 222 210
-0.749640 -0.796135 5.106155 223 211 146
-0.757130 -0.712041 5.142808 221 189 55
-0.801653 -0.268328 5.451349 190 168 86
-0.868225 0.110447 5.937877 54 65 33
-0.883308 0.165927 6.038450 55 37 25
-0.888923 0.198845 6.070379 121 73 40
-0.765977 -1.778617 5.202108 155 112 53
-0.760977 -1.585328 5.172738 206 172 48
-0.747290 -0.903509 5.085422 233 224 213
-0.748286 -0.849551 5.102427 215 223 187
-0.748264 -0.813283 5.099165 189 166 140
-0.754477 -0.680641 5.157744 222 201 149
-0.796589 -0.305305 5.442212 56 41 21
-0.844700 0.030056 5.786248 70 61 41
-0.863860 0.094081 5.924222 134 127 110
-0.748985 -1.647373 5.109773 181 116 55
-0.756043 -1.435662 5.173843 201 194 173
-0.740022 -1.261021 5.065238 210 131 45
-0.735662 -1.090560 5.032306 204 154 111
-0.743212 -0.916143 5.076962 232 219 210
-0.747794 -0.739209 5.131963 210 174 44
-0.754165 -0.657190 5.173814 190 159 134
-0.760385 -0.564452 5.208730 63 108 64
-0.772258 -0.486659 5.289968 205 196 181
-0.776977 -0.427205 5.336605 207 187 133
-0.826827 -0.134464 5.660849 153 154 137
-0.856194 0.071635 5.888375 102 112 98
-0.882095 0.200741 6.066471 115 72 39
-0.760075 -1.789926 5.211466 88 76 46
-0.750469 -1.600114 5.150710 201 176 56
-0.750126 -1.392145 5.156090 138 137 107
-0.750853 -1.382810 5.160373 73 74 51
-0.753494 -1.366298 5.158127 205 189 161
-0.752778 -1.344885 5.163518 185 116 35
-0.751526 -1.330177 5.154708 197 117 32
-0.740013 -0.931037 5.085590 236 227 217
-0.741074 -0.874461 5.093316 122 149 80
-0.744670 -0.774747 5.112816 220 206 177
-0.746459 -0.736330 5.130662 221 185 57
-0.760611 -0.533474 5.238007 85 94 67
-0.779727 -0.353905 5.378815 59 35 24
-0.827100 -0.090996 5.704165 39 35 50
-0.878318 0.223323 6.074505 108 57 11
-0.771749 -1.946523 5.299557 58 46 43
-0.726449 -1.747839 4.995845 166 158 147
-0.748416 -1.414569 5.161675 101 106 82
-0.729822 -1.044996 5.030424 118 121 99
-0.736056 -0.946599 5.078426 235 227 214
-0.774226 -0.398938 5.350845 191 148 48
-0.777451 -0.360747 5.373580 60 36 23
-0.835144 0.002137 5.770341 68 106 71
-0.732440 -1.652676 5.062153 161 99 23
-0.745865 -1.612129 5.146814 184 179 143
-0.734182 -1.154446 5.082913 227 217 192
-0.740689 -0.698857 5.147727 245 214 70
-0.744355 -0.631484 5.165949 228 144 46
-0.765968 -0.453212 5.316126 119 111 98
-0.828086 -0.007589 5.765440 69 93 72
-0.862866 0.156103 6.005250 56 38 24
-0.867824 0.205968 6.062729 108 54 17
-0.857358 0.564349 5.984124 67 37 12
-0.725634 -1.664003 5.040340 201 150 41
-0.744514 -1.574663 5.171640 159 142 55
-0.748348 -1.474051 5.187058 92 120 63
-0.733188 -1.288696 5.101803 210 187 148
-0.725933 -1.216112 5.055396 149 161 146
-0.730980 -1.178187 5.077396 42 61 120
-0.725902 -0.965038 5.053787 142 163 128
-0.731582 -0.872652 5.092543 124 149 81
-0.732194 -0.868997 5.092512 120 147 76
-0.741311 -0.657703 5.174970 224 194 171
-0.760656 -0.480563 5.301882 206 196 186
-0.830635 0.048726 5.808207 140 76 22
-0.847077 0.104444 5.923147 76 69 52
-0.868938 0.268612 6.085256 57 41 24
-0.743977 -1.510883 5.190412 128 143 109
-0.743825 -1.485087 5.186324 96 125 66
-0.729252 -1.143693 5.086060 178 124 67
-0.722552 -0.984345 5.054832 74 124 75
-0.727740 -0.889262 5.091166 101 115 83
-0.732804 -0.758340 5.117749 171 158 101
-0.732536 -0.721684 5.130785 182 150 30
-0.742385 -0.592857 5.191920 179 179 159
-0.751046 -0.505283 5.265386 179 135 97
-0.806036 -0.136821 5.667088 79 70 56
-0.825706 0.227129 5.808749 128 115 95
-0.856751 0.629226 6.065452 81 54 23
-0.747920 -1.792162 5.226360 148 119 56
-0.733881 -1.635911 5.124429 87 97 71
-0.736868 -1.593361 5.152761 204 198 164
-0.740663 -1.563564 5.176651 203 204 182
-0.725128 -1.132576 5.089289 221 136 47
-0.725801 -1.123001 5.091157 225 145 51
-0.720058 -0.996626 5.052187 73 118 84
-0.722353 -0.964194 5.048750 131 148 114
-0.721253 -0.920432 5.072097 234 226 215
-0.722195 -0.910192 5.079393 232 224 211
-0.724491 -0.825424 5.092459 231 227 191
-0.737014 -0.602523 5.181990 215 211 192
-0.740103 -0.572151 5.208798 58 102 65
-0.741083 -0.559876 5.215409 67 111 76
-0.758704 -0.429345 5.335723 207 170 72
-0.743465 -0.337862 5.250393 85 58 37
-0.787105 -0.177734 5.573318 87 73 57
-0.820520 0.236094 5.802432 84 64 66
-0.736737 -1.385370 5.168974 206 194 177
-0.724228 -1.289708 5.095573 230 192 163
-0.715006 -1.251512 5.035269 214 136 45
-0.714013 -1.085011 5.022975 248 198 161
-0.717761 -0.926599 5.069552 235 226 217
-0.722138 -0.869879 5.092214 123 153 87
-0.741052 -0.537522 5.236054 195 197 166
-0.744298 -0.379146 5.250154 170 128 27
-0.805069 -0.010992 5.696418 87 118 87
-0.722349 -1.647519 5.087174 213 179 129
-0.730887 -1.394303 5.171167 210 199 181
-0.714294 -1.235447 5.044557 195 148 118
-0.720936 -0.756242 5.121597 177 158 113
-0.727572 -0.680102 5.152195 186 162 125
-0.730214 -0.637397 5.168475 231 151 69
-0.741784 -0.402840 5.258790 189 148 35
-0.799379 -0.102481 5.686743 163 155 144
-0.832219 0.300690 5.942464 64 48 29
-0.731434 -1.502387 5.179787 85 108 69
-0.728417 -1.418016 5.167096 206 197 178
-0.720536 -0.724421 5.132381 192 162 58
-0.727887 -0.660597 5.172409 208 194 173
-0.734072 -0.561700 5.216630 64 109 71
-0.739046 -0.501802 5.266403 190 152 115
-0.745248 -0.446629 5.321482 148 130 111
-0.736298 -0.385390 5.244758 201 155 44
-0.797154 -0.041220 5.696479 107 116 84
-0.811129 0.239848 5.804787 47 33 33
-0.705428 -1.679126 5.024358 205 129 40
-0.720700 -1.325832 5.145972 178 103 22
-0.704552 -1.249616 5.029642 214 134 48
-0.709001 -1.193819 5.063934 30 57 127
-0.713728 -0.892664 5.086928 127 136 108
-0.825347 0.302033 5.931318 50 32 16
-0.706253 -1.668703 5.036113 222 176 56
-0.722947 -1.473197 5.169117 103 130 78
-0.703771 -1.236077 5.040698 181 116 52
-0.710636 -0.885303 5.086896 123 155 85
-0.709878 -0.878973 5.088140 119 155 84
-0.712998 -0.746049 5.130615 196 181 116
-0.716710 -0.703154 5.140549 185 172 142
-0.728607 -0.528008 5.240237 198 190 166
-0.737762 -0.477921 5.302490 204 196 184
-0.765647 -0.169121 5.520523 134 126 110
-0.789411 0.003137 5.693146 56 91 63
-0.826530 0.566816 6.014717 74 46 19
-0.717303 -1.563309 5.159800 114 106 99
-0.720382 -1.534904 5.172354 205 199 185
-0.719781 -1.502823 5.181234 113 131 94
-0.719088 -1.442122 5.166904 108 129 67
-0.706508 -1.121932 5.092789 225 143 52
-0.701273 -1.071291 5.040002 239 231 218
-0.702039 -0.932704 5.062669 232 223 214
-0.706168 -0.852401 5.095345 120 154 81
-0.710872 -0.760735 5.122867 225 215 210
-0.726286 -0.344729 5.252003 69 40 25
-0.830548 0.625414 6.055343 81 51 22
-0.716632 -1.379910 5.173958 208 195 179
-0.700503 -1.175476 5.062562 43 75 149
-0.698777 -1.085747 5.038823 232 199 170
-0.704205 -0.828653 5.099219 208 209 166
-0.719283 -0.560890 5.207274 72 114 74
-0.786992 0.029281 5.710873 162 169 139
-0.786132 0.055530 5.727016 133 97 45
-0.780168 0.157439 5.671154 52 36 20
-0.820912 0.560497 6.013042 66 40 17
-0.703058 -1.646016 5.095088 197 143 73
-0.706644 -1.631844 5.113986 95 102 58
-0.708372 -1.609450 5.135763 60 93 70
-0.713030 -1.412093 5.171859 107 116 81
-0.713074 -1.359462 5.165565 165 147 117
-0.714632 -0.547213 5.210839 79 121 80
-0.726389 -0.485517 5.287530 210 198 181
-0.720393 -0.373505 5.252195 160 137 76
-0.778218 -0.019993 5.678153 93 111 86
-0.704869 -1.617547 5.127160 69 97 58
-0.690146 -1.248881 5.031350 213 135 49
-0.690433 -1.217138 5.039906 58 68 74
-0.692820 -1.017548 5.048286 106 108 88
-0.695251 -0.947923 5.061695 237 226 217
-0.695827 -0.872546 5.091351 111 135 74
-0.699138 -0.798128 5.107979 230 220 205
-0.708619 -0.652942 5.175240 212 179 147
-0.704802 -0.629031 5.147532 231 151 56
-0.724195 -0.477605 5.299736 207 196 186
-0.725702 -0.453389 5.316171 204 185 163
-0.730033 -0.443457 5.320736 180 118 58
-0.779185 -0.052887 5.713319 101 106 87
-0.775047 0.043027 5.716763 163 141 121
-0.779916 0.102209 5.718757 128 122 107
-0.805624 0.273710 5.911490 38 24 12
-0.812539 0.556896 6.017065 66 40 17
-0.821769 0.633447 6.066117 72 43 18
-0.679104 -1.786772 4.958222 173 168 157
-0.705329 -1.608720 5.137281 58 87 64
-0.709731 -1.496988 5.180269 122 132 93
-0.705643 -1.454070 5.157668 103 133 71
-0.690030 -1.188105 5.050590 54 87 160
-0.693409 -1.146586 5.072708 225 212 198
-0.689924 -1.006923 5.051589 228 228 205
-0.712794 -0.335152 5.244072 58 39 24
-0.742762 -0.177466 5.489409 52 42 30
-0.704506 -1.439306 5.163048 106 128 72
-0.686749 -0.971490 5.056597 183 188 167
-0.686188 -0.912512 5.064763 103 115 78
-0.690643 -0.891693 5.075653 104 137 73
-0.695097 -0.749860 5.134617 154 137 132
-0.719881 -0.432363 5.316888 202 181 148
-0.757312 -0.119545 5.617582 105 103 96
-0.773245 0.129871 5.738787 77 82 47
-0.776590 0.150423 5.760610 99 84 67
-0.692050 -1.643487 5.104077 241 221 183
-0.694850 -1.628447 5.121244 96 100 69
-0.685045 -1.168757 5.060122 51 72 125
-0.680885 -1.054168 5.034426 233 226 212
-0.696768 -0.687033 5.159194 233 227 215
-0.710344 -0.500916 5.255888 177 113 46
-0.738112 -0.187594 5.475738 58 52 36
-0.762750 -0.030444 5.677952 100 102 81
-0.766485 0.074703 5.711532 139 140 133
-0.784348 0.248567 5.849741 104 93 84
-0.795618 0.288071 5.927650 34 16 9
-0.809635 0.633047 6.071583 51 36 12
-0.694177 -1.569293 5.162397 131 148 130
-0.713609 -0.430542 5.313295 204 187 168
-0.704412 -0.369356 5.250144 186 182 161
-0.705784 -0.348818 5.253805 51 36 24
-0.753073 -0.051144 5.626702 175 171 156
-0.764967 0.040700 5.717943 109 98 101
-0.669569 -1.788583 4.983406 174 167 157
-0.677823 -1.655298 5.048917 204 162 58
-0.693259 -1.593474 5.150922 157 141 136
-0.696039 -1.423318 5.176693 133 132 94
-0.687940 -1.328111 5.126533 182 114 45
-0.687091 -1.282102 5.107396 199 149 91
-0.677358 -0.970706 5.056076 139 134 120
-0.682524 -0.839957 5.091970 121 161 93
-0.684892 -0.796637 5.107664 162 162 139
-0.687131 -0.760209 5.128439 226 228 213
-0.687982 -0.612667 5.147398 235 157 56
-0.689184 -0.593174 5.148839 131 108 89
-0.692615 -0.577485 5.177235 75 115 69
-0.710468 -0.463584 5.311405 183 139 105
-0.757871 -0.074528 5.689138 72 90 66
-0.757079 0.002422 5.682403 176 176 151
-0.675721 -1.660540 5.042069 219 180 57
-0.680496 -1.646256 5.072061 172 120 61
-0.690072 -1.580574 5.156678 162 159 150
-0.680371 -1.125100 5.083964 224 143 52
-0.675223 -0.926188 5.058388 116 120 87
-0.683937 -0.772761 5.121766 114 127 92
-0.687031 -0.731018 5.146375 144 125 116
-0.689568 -0.668780 5.169567 232 222 214
-0.687955 -0.649115 5.163795 208 179 149
-0.684443 -0.249893 5.163640 126 109 84
-0.735305 -0.151562 5.553749 178 171 157
-0.742278 -0.131488 5.588400 152 140 139
-0.689079 -1.474187 5.176994 138 144 105
-0.675185 -1.158360 5.067074 92 77 98
-0.670157 -1.094395 5.040869 231 150 60
-0.673927 -0.901244 5.069916 101 142 85
-0.690916 -0.558895 5.200558 48 90 51
-0.698577 -0.490855 5.272253 201 191 170
-0.698141 -0.486700 5.278677 168 122 85
-0.705027 -0.442564 5.312099 202 123 45
-0.782161 0.369106 5.943912 50 40 29
-0.704476 -1.811696 5.315528 174 135 47
-0.680455 -1.602703 5.143110 107 105 92
-0.688783 -1.512278 5.184593 74 94 85
-0.680487 -1.347899 5.147534 211 201 178
-0.666102 -1.035565 5.043583 244 236 223
-0.672498 -0.863335 5.084320 221 223 185
-0.673454 -0.816583 5.100358 115 148 83
-0.678256 -0.269875 5.159730 83 58 46
-0.719721 -0.185785 5.481762 65 55 38
-0.752696 0.136026 5.734625 54 33 24
-0.748976 0.177062 5.696610 52 35 20
-0.778957 0.297250 5.939488 44 28 19
-0.786532 0.570211 6.028310 62 45 29
-0.789929 0.593908 6.039021 54 35 20
-0.699311 -1.824481 5.302760 161 153 140
-0.674427 -1.640242 5.095784 131 96 78
-0.676506 -1.624304 5.122707 185 175 159
-0.682307 -1.458368 5.166631 147 150 108
-0.665119 -1.210660 5.043157 106 111 113
-0.665420 -1.018204 5.045847 232 224 209
-0.686832 -0.526873 5.229715 148 140 106
-0.697467 -0.449872 5.312868 192 115 34
-0.678630 -0.252748 5.167977 113 92 64
-0.742605 -0.089635 5.676156 66 54 44
-0.744162 0.161239 5.677052 51 31 14
-0.774424 0.372818 5.945355 38 30 20
-0.679968 -1.539673 5.175005 179 195 176
-0.679582 -1.446970 5.171852 142 138 97
-0.678516 -1.383495 5.176795 143 131 117
-0.674603 -1.313739 5.131973 193 122 46
-0.666582 -0.878312 5.078808 209 203 162
-0.668083 -0.835217 5.095333 96 135 63
-0.672308 -0.760923 5.134140 141 145 112
-0.674495 -0.590106 5.162859 163 143 129
-0.716246 -0.176189 5.494558 51 40 28
-0.739446 -0.096004 5.660538 51 40 28
-0.742393 -0.023735 5.688426 71 55 39
-0.741950 -0.015307 5.677036 62 45 32
-0.750273 0.209748 5.752213 59 46 32
-0.775869 0.339996 5.954929 48 36 24
-0.678368 -1.503107 5.192166 216 214 204
-0.677524 -1.396704 5.186672 144 129 116
-0.659816 -1.226896 5.041392 170 125 97
-0.663476 -1.139704 5.072744 173 164 133
-0.658293 -1.074509 5.038545 212 204 187
-0.657017 -1.059705 5.046516 233 229 213
-0.660396 -0.950110 5.066665 157 167 143
-0.677496 -0.535710 5.213859 190 197 160
-0.690086 -0.435283 5.311382 201 175 140
-0.679713 -0.401141 5.239326 201 195 183
-0.680377 -0.355981 5.249696 101 79 63
-0.672288 -0.237310 5.175158 107 90 70
-0.714332 -0.169603 5.510637 57 43 31
-0.741246 0.052156 5.721530 83 62 51
-0.761819 0.273226 5.902162 12 7 1
-0.776208 0.561922 6.024627 53 37 26
-0.658477 -1.658067 5.042741 217 172 57
-0.675864 -1.402528 5.188805 168 156 141
-0.655266 -1.199192 5.046726 110 107 132
-0.663241 -0.811692 5.104607 125 155 80
-0.663767 -0.807229 5.107167 101 136 65
-0.669678 -0.716022 5.160551 190 191 177
-0.670279 -0.663058 5.174191 234 226 213
-0.667745 -0.272322 5.163814 125 109 92
-0.735650 0.107324 5.693234 41 23 21
-0.739665 0.121018 5.730222 52 40 34
-0.767439 0.315414 5.957742 64 55 40
-0.769172 0.324593 5.959743 54 39 28
-0.670503 -1.569525 5.161635 165 171 148
-0.671986 -1.409159 5.191738 176 163 151
-0.654625 -1.179293 5.056275 124 111 137
-0.654524 -1.107940 5.060115 222 143 51
-0.659346 -0.794307 5.113718 113 142 75
-0.668087 -0.673930 5.179380 233 224 215
-0.665441 -0.253466 5.172995 118 101 82
-0.733915 -0.081980 5.688132 82 54 42
-0.718493 -0.000548 5.595486 68 52 38
-0.761052 0.295914 5.936430 38 25 17
-0.769242 0.545404 6.014400 65 50 37
-0.649676 -1.672926 5.024794 203 126 43
-0.651391 -1.652222 5.049220 207 169 56
-0.657925 -1.642482 5.089108 202 164 126
-0.659520 -1.284451 5.126072 201 151 89
-0.648872 -1.242010 5.046963 223 137 51
-0.651775 -1.043051 5.054432 224 218 204
-0.660275 -0.762747 5.135129 215 211 188
-0.662810 -0.590730 5.173217 163 149 135
-0.682061 -0.464787 5.304214 198 113 27
-0.673051 -0.349817 5.248606 97 74 60
-0.766181 0.556483 6.022005 55 39 26
-0.659495 -1.335400 5.147406 210 197 133
-0.649321 -0.891325 5.072331 237 240 212
-0.650688 -0.874148 5.076734 133 150 113
-0.650825 -0.853422 5.084692 123 159 96
-0.651827 -0.840490 5.090953 103 132 75
-0.665735 -0.523641 5.226253 207 204 185
-0.673326 -0.484399 5.280844 195 176 151
-0.725979 -0.070016 5.691946 59 38 24
-0.750809 0.279522 5.909514 79 71 53
-0.758465 0.529063 6.012134 74 58 45
-0.761074 0.567956 6.028814 65 45 29
-0.646379 -1.831983 5.057117 177 173 164
-0.660025 -1.588022 5.154930 136 127 122
-0.657922 -1.359461 5.152898 179 157 100
-0.655410 -0.733938 5.150607 230 227 218
-0.657152 -0.263404 5.168872 108 91 76
-0.713364 0.030181 5.619246 76 61 44
-0.724061 0.180268 5.708060 46 26 11
-0.724005 0.189018 5.721985 46 29 17
-0.753275 0.344692 5.961399 98 78 61
-0.640277 -1.664252 5.035757 226 192 57
-0.658641 -1.459469 5.187019 216 206 194
-0.644273 -1.155543 5.072507 229 220 207
-0.647534 -0.798796 5.109370 140 154 94
-0.656494 -0.707471 5.164540 75 96 73
-0.661294 -0.521647 5.229116 210 210 182
-0.671515 -0.439904 5.310967 182 118 45
-0.707400 -0.003338 5.589581 85 62 43
-0.666880 -1.832494 5.255184 166 158 147
-0.672489 -1.814731 5.293478 182 173 146
-0.657161 -1.483730 5.187100 87 99 89
-0.657016 -1.452836 5.190163 218 206 195
-0.638839 -1.228605 5.051793 183 123 75
-0.639792 -0.994391 5.055484 223 178 150
-0.637531 -0.965306 5.065369 235 208 193
-0.641828 -0.832219 5.097463 147 162 97
-0.651932 -0.590167 5.184960 122 103 86
-0.699307 -0.056373 5.553029 100 65 44
-0.723781 0.228666 5.772868 83 64 49
-0.756255 0.621812 6.074290 59 35 22
-0.649909 -1.561217 5.163598 105 123 92
-0.653503 -1.524335 5.171816 81 118 78
-0.631679 -1.082626 5.032686 224 159 104
-0.651074 -0.648729 5.183949 220 202 180
-0.664070 -0.448131 5.311800 204 129 46
-0.685364 -0.195859 5.475346 78 64 53
-0.694557 -0.077839 5.549995 60 40 25
-0.752606 0.636471 6.075878 54 35 22
-0.664688 -1.799948 5.299169 202 170 57
-0.641194 -1.640393 5.095156 251 213 164
-0.642206 -1.617978 5.130016 192 182 173
-0.632666 -1.244059 5.059071 220 141 44
-0.633899 -1.135624 5.076037 179 166 136
-0.633009 -1.042165 5.052683 198 173 150
-0.639032 -0.787947 5.114717 178 183 141
-0.643943 -0.713410 5.161567 169 170 157
-0.649963 -0.567929 5.202024 141 145 117
-0.683579 -0.175806 5.494135 60 46 34
-0.685090 -0.143793 5.516569 79 60 43
-0.690906 -0.111213 5.539368 56 32 20
-0.736559 0.295656 5.930119 108 97 83
-0.645218 -1.533947 5.171220 78 108 68
-0.645921 -1.431044 5.190971 178 170 155
-0.642283 -1.319385 5.153421 185 171 137
-0.631179 -1.186705 5.063777 161 152 139
-0.630901 -0.864327 5.083907 95 127 63
-0.658462 -0.467561 5.297601 184 109 25
-0.691187 -0.016982 5.581513 82 52 38
-0.733653 0.306873 5.949761 107 91 76
-0.659514 -1.813857 5.292221 168 164 134
-0.642934 -1.515223 5.177483 88 126 82
-0.626743 -1.244281 5.061676 221 144 51
-0.629526 -1.135377 5.078004 158 128 84
-0.630592 -0.849035 5.091970 154 162 111
-0.632223 -0.765732 5.123332 124 157 88
-0.638933 -0.324862 5.211473 107 80 68
-0.653397 -1.826440 5.287514 180 170 161
-0.621840 -1.648987 5.043598 205 164 49
-0.624980 -0.896514 5.066616 131 159 96
-0.630959 -0.749103 5.131861 139 145 103
-0.635049 -0.713921 5.159638 107 119 102
-0.636855 -0.613790 5.185741 234 154 58
-0.640386 -0.543458 5.226033 73 115 70
-0.651743 -0.477163 5.288945 202 123 39
-0.675707 -0.169616 5.509862 41 27 21
-0.680374 -0.031950 5.563011 64 47 30
-0.731323 0.477817 6.011884 88 74 62
-0.619217 -1.664237 5.032481 227 199 61
-0.632111 -1.591102 5.154801 169 158 155
-0.634618 -1.329673 5.151408 194 170 89
-0.622053 -1.243072 5.061863 226 141 48
-0.622807 -1.116988 5.075481 224 147 50
-0.622706 -0.843507 5.096886 233 228 216
-0.633321 -0.694407 5.171963 179 174 149
-0.634095 -0.685272 5.180367 233 229 218
-0.636708 -0.590224 5.198261 223 218 199
-0.649404 -0.447660 5.317533 183 144 97
-0.677514 -0.109854 5.556487 78 50 32
-0.723898 0.279365 5.948270 46 39 20
-0.617065 -1.648367 5.044792 209 168 52
-0.633502 -1.513867 5.171247 67 111 70
-0.630513 -1.426851 5.151774 173 135 108
-0.630107 -1.363694 5.163081 199 162 47
-0.620707 -1.135173 5.082694 151 129 90
-0.618538 -0.962740 5.065238 216 145 56
-0.634200 -0.329740 5.226223 79 62 47
-0.674750 -0.071193 5.565747 57 40 30
-0.723729 0.324266 5.969035 113 97 81
-0.723949 0.507911 6.020326 78 60 48
-0.643990 -1.836960 5.281265 173 163 154
-0.647518 -1.799311 5.300176 192 155 51
-0.630245 -1.482275 5.187154 108 113 109
-0.626760 -1.344357 5.159137 142 121 42
-0.617129 -1.177419 5.078990 114 119 141
-0.627468 -0.670882 5.188670 175 163 151
-0.628661 -0.645548 5.199762 195 150 111
-0.627775 -0.618122 5.185349 230 145 54
-0.671157 -0.089602 5.568267 84 57 40
-0.716981 0.268629 5.945477 55 39 24
-0.716632 0.579297 6.005080 44 36 23
-0.624602 -1.527319 5.158458 151 182 143
-0.612525 -1.227132 5.058074 197 154 136
-0.614766 -1.187719 5.073278 57 71 97
-0.607207 -1.061856 5.040779 188 135 82
-0.614660 -0.841359 5.100661 117 118 133
-0.616887 -0.767518 5.126056 119 130 92
-0.621987 -1.510235 5.171125 75 123 82
-0.619748 -1.322024 5.143214 212 203 184
-0.619283 -1.295155 5.146900 189 159 122
-0.614321 -0.812056 5.114647 134 130 155
-0.620503 -0.693593 5.170942 140 148 118
-0.622698 -0.669454 5.197170 175 160 148
-0.663624 -0.039455 5.562320 77 49 34
-0.666375 -0.007146 5.581102 62 48 30
-0.669821 0.121155 5.657786 49 32 21
-0.710506 0.564199 5.991672 54 42 31
-0.636461 -1.835157 5.288976 174 164 155
-0.618143 -1.564878 5.154869 220 216 207
-0.605829 -1.199329 5.064997 91 103 117
-0.602913 -1.090874 5.030881 222 144 52
-0.606921 -0.867369 5.087710 171 174 185
-0.611534 -0.747018 5.134957 229 225 215
-0.622083 -0.595085 5.204316 184 126 95
-0.630584 -0.482628 5.288977 205 192 162
-0.637329 -0.392375 5.353312 107 86 77
-0.660457 -0.106850 5.539990 90 63 52
-0.659192 -0.026613 5.561809 85 62 51
-0.600374 -1.662156 5.032348 210 126 47
-0.604710 -1.135610 5.091066 185 130 74
-0.599046 -1.083975 5.031876 228 149 75
-0.599014 -1.064199 5.041338 204 159 101
-0.601517 -0.990005 5.063189 247 170 87
-0.614193 -0.726481 5.153009 231 232 226
-0.627673 -0.473103 5.297920 160 130 91
-0.629085 -1.818238 5.291824 174 166 154
-0.598642 -1.046378 5.051351 214 133 45
-0.606671 -0.796624 5.122348 72 73 119
-0.612553 -0.692031 5.173877 124 140 106
-0.615046 -0.666487 5.205358 165 153 141
-0.614381 -0.641246 5.197383 194 145 103
-0.618687 -0.564271 5.218829 71 62 81
-0.627535 -0.438394 5.329719 207 199 186
-0.625736 -0.353518 5.308755 80 58 47
-0.621630 -0.318975 5.270522 69 51 35
-0.626279 -0.271212 5.332141 61 43 27
-0.655178 -0.074988 5.577995 65 46 34
-0.601432 -1.630135 5.085430 255 212 180
-0.601202 -1.606147 5.110596 208 197 185
-0.607634 -1.432255 5.156828 208 152 106
-0.601189 -1.115182 5.086559 221 140 48
-0.604615 -0.764616 5.131734 146 142 113
-0.608277 -0.617267 5.186347 227 147 60
-0.594028 -1.653581 5.042489 221 183 55
-0.602546 -1.592746 5.135465 132 132 116
-0.594684 -0.884721 5.080180 83 76 86
-0.662047 0.169678 5.706687 63 47 29
-0.693144 0.300501 5.976826 104 90 77
-0.701032 0.635132 6.065691 73 52 32
-0.619468 -1.830900 5.287358 171 161 151
-0.618849 -1.818339 5.290287 170 161 153
-0.590031 -1.662848 5.031514 215 145 61
-0.594384 -1.635146 5.068295 201 131 58
-0.602050 -1.378509 5.155336 215 201 151
-0.590130 -1.207582 5.062717 71 90 102
-0.592400 -1.148039 5.094629 215 195 189
-0.594512 -0.838116 5.107477 34 65 142
-0.597642 -0.819682 5.116915 40 55 117
-0.596985 -0.750183 5.136374 85 88 79
-0.605061 -0.663463 5.206460 163 149 140
-0.608542 -0.647526 5.220647 222 195 163
-0.610805 -0.529403 5.243525 143 136 115
-0.613931 -0.488064 5.283272 170 131 93
-0.622220 -0.398964 5.351749 163 166 150
-0.617926 -0.266849 5.333995 69 45 32
-0.645713 -0.095749 5.572188 79 60 46
-0.649783 0.112122 5.667324 124 121 106
-0.598198 -1.325502 5.149796 212 202 184
-0.596702 -1.314685 5.148860 206 200 182
-0.589752 -1.183604 5.078194 53 89 160
-0.646558 0.126920 5.655682 142 137 120
-0.600672 -1.474145 5.193537 223 217 206
-0.595032 -1.367067 5.160801 205 185 111
-0.586893 -0.870632 5.087814 207 202 209
-0.589612 -0.810972 5.121607 39 68 135
-0.599148 -0.594630 5.204482 189 124 67
-0.603919 -0.540880 5.236785 170 169 164
-0.605330 -0.512183 5.252555 167 121 88
-0.614787 -0.375118 5.365734 177 164 129
-0.684568 0.296981 5.985953 99 86 72
-0.688031 0.474313 6.036110 86 72 60
-0.589638 -1.593975 5.128160 140 122 95
-0.597365 -1.525975 5.172041 227 220 209
-0.580231 -1.224049 5.050938 178 116 68
-0.582184 -1.207593 5.062228 76 99 135
-0.577964 -1.079150 5.038881 241 185 134
-0.579558 -1.061246 5.047390 206 165 121
-0.591769 -0.692974 5.172446 96 114 87
-0.596744 -0.660866 5.203976 161 145 140
-0.596006 -0.566218 5.219568 136 131 147
-0.607510 -0.439366 5.331550 70 86 67
-0.611540 -0.408750 5.348393 158 165 146
-0.603586 -0.345847 5.290788 127 110 92
-0.598775 -0.206001 5.233031 49 36 29
-0.679852 0.260569 5.972974 106 94 78
-0.590965 -1.550686 5.159148 226 219 213
-0.594592 -1.459758 5.195650 174 142 87
-0.594919 -1.453459 5.193057 208 140 61
-0.577458 -0.906604 5.073507 226 172 125
-0.582518 -0.837125 5.109489 34 70 146
-0.586280 -0.718715 5.153241 64 112 72
-0.570127 -1.671816 5.009694 198 113 37
-0.584886 -1.601919 5.121418 208 183 161
-0.587820 -1.387547 5.159258 61 64 87
-0.577151 -1.181758 5.079641 44 71 144
-0.581671 -0.833386 5.111390 36 65 138
-0.579647 -0.803199 5.124573 33 60 129
-0.600344 -0.283616 5.329793 60 43 28
-0.601171 -0.267683 5.317977 131 131 118
-0.576714 -1.625385 5.099577 215 136 52
-0.580240 -1.610568 5.113186 165 126 102
-0.586019 -1.555977 5.159208 229 222 214
-0.582895 -1.333453 5.161523 149 154 129
-0.572901 -1.209192 5.062405 46 64 105
-0.575882 -1.152130 5.093262 62 82 143
-0.575406 -1.102627 5.086812 227 147 57
-0.579243 -0.776397 5.133584 120 106 138
-0.579165 -0.745017 5.141550 190 201 182
-0.586256 -0.656460 5.201874 170 155 146
-0.585030 -0.615012 5.178307 239 163 78
-0.587329 -0.596873 5.196289 208 122 43
-0.667924 0.259309 5.986696 74 64 52
-0.670609 0.313400 6.001221 75 57 45
-0.568777 -1.647363 5.042769 221 180 61
-0.580608 -1.430042 5.162561 198 136 87
-0.578332 -1.284300 5.139930 181 164 146
-0.575260 -0.822547 5.116128 36 61 128
-0.574373 -0.796421 5.126799 47 67 141
-0.576847 -0.731348 5.145650 100 142 101
-0.581515 -0.647041 5.195958 230 220 200
-0.585274 -0.569539 5.216586 143 145 150
-0.588593 -0.519979 5.254526 214 208 198
-0.627166 0.028640 5.623934 182 187 170
-0.667375 0.282965 5.997687 45 33 33
-0.563942 -1.658327 5.030118 238 199 67
-0.575776 -1.590732 5.134637 206 160 137
-0.583037 -1.504303 5.189940 58 66 99
-0.579322 -1.374515 5.164215 92 88 115
-0.577887 -1.344859 5.168296 124 131 97
-0.570353 -1.153869 5.090901 37 55 107
-0.565219 -1.075127 5.045528 247 200 161
-0.568271 -0.860006 5.096533 186 198 197
-0.570992 -0.842799 5.106767 42 64 133
-0.575926 -0.693563 5.173655 145 140 120
-0.665725 0.275430 6.003631 128 117 103
-0.576090 -1.547548 5.164554 226 222 210
-0.575983 -1.398577 5.162665 102 103 93
-0.564354 -1.031332 5.065475 243 238 201
-0.565036 -0.904440 5.077019 206 146 98
-0.571441 -0.721317 5.152267 89 144 102
-0.581431 -0.532608 5.245116 190 191 193
-0.585305 -0.486548 5.286233 178 135 92
-0.627162 0.165665 5.715554 73 59 46
-0.662042 0.453573 6.007954 69 44 18
-0.661282 0.627017 6.074235 82 53 19
-0.571973 -1.374102 5.163962 83 73 98
-0.560862 -1.099211 5.080782 231 150 58
-0.566160 -0.795883 5.122237 40 60 133
-0.571109 -0.614302 5.183982 245 164 84
-0.573070 -0.589007 5.206121 222 207 189
-0.623645 -0.050910 5.690753 126 129 135
-0.584450 -1.811263 5.291870 162 161 148
-0.570642 -1.528643 5.177413 55 79 116
-0.572912 -1.517235 5.183298 83 110 174
-0.566593 -1.315260 5.147113 150 147 118
-0.558102 -1.177565 5.066373 48 71 142
-0.559098 -0.840187 5.105916 51 78 153
-0.564241 -0.772945 5.130802 110 91 118
-0.575194 -0.527700 5.250460 205 195 197
-0.582605 -0.448458 5.327346 177 186 171
-0.588132 -0.371823 5.371138 104 86 53
-0.621336 -0.084822 5.674647 70 63 72
-0.608289 0.199461 5.604363 39 37 25
-0.551009 -1.646787 5.036827 229 184 57
-0.555048 -1.636316 5.065580 207 145 44
-0.565917 -1.398319 5.161787 187 167 103
-0.553076 -1.050749 5.051388 233 227 208
-0.555618 -0.860891 5.095815 106 104 108
-0.583799 -0.408199 5.352196 52 92 55
-0.567072 -1.495957 5.195712 246 193 116
-0.562414 -1.432711 5.172777 189 136 82
-0.562113 -1.373449 5.162778 200 188 201
-0.561629 -1.285932 5.154961 168 154 130
-0.558853 -0.750902 5.143105 86 93 76
-0.566548 -0.574563 5.216546 35 39 98
-0.571602 -0.518647 5.273383 197 191 177
-0.580805 -0.391778 5.367848 69 106 65
-0.562146 -1.443754 5.174736 180 166 123
-0.561000 -1.352175 5.167116 162 168 134
-0.549618 -1.101225 5.087891 233 154 62
-0.545404 -1.073767 5.051290 238 209 180
-0.578071 -0.366166 5.375969 162 154 126
-0.644507 0.438464 5.997960 64 43 19
-0.552528 -1.617840 5.116201 193 159 116
-0.545613 -1.190217 5.060135 51 74 134
-0.547482 -0.903864 5.086147 219 184 150
-0.555283 -0.699981 5.167910 139 142 112
-0.558438 -0.207602 5.234709 153 115 44
-0.610776 -0.042145 5.714523 108 112 117
-0.639105 0.394518 6.022636 56 41 15
-0.539043 -1.664582 5.025223 211 138 48
-0.552855 -1.574220 5.149819 170 183 177
-0.552982 -1.559790 5.157769 141 160 150
-0.545728 -1.138923 5.089110 231 216 217
-0.543509 -1.129261 5.093465 169 128 63
-0.545665 -0.853081 5.098244 121 119 134
-0.551989 -0.613524 5.186025 252 220 162
-0.558094 -0.555689 5.229688 17 34 91
-0.557960 -0.532767 5.251345 46 44 90
-0.566556 -0.461103 5.317089 85 88 71
-0.568953 -0.415552 5.349861 73 109 70
-0.550624 -1.549410 5.163941 122 141 131
-0.550169 -1.537379 5.172398 224 220 211
-0.550809 -1.402389 5.168547 196 144 75
-0.540281 -1.187831 5.062215 43 66 127
-0.536814 -1.019073 5.063092 229 152 71
-0.541095 -0.839738 5.104810 198 195 200
-0.545504 -0.773607 5.131572 180 159 187
-0.601728 -0.070482 5.710502 71 65 76
-0.534271 -1.652872 5.028562 230 191 51
-0.542894 -1.598399 5.136161 195 174 135
-0.550721 -1.497938 5.191442 194 129 96
-0.544028 -1.295410 5.158124 206 193 176
-0.533572 -1.062858 5.051881 225 218 201
-0.555897 -0.485623 5.293591 183 124 71
-0.564710 -0.397518 5.373257 63 104 62
-0.558311 -1.796176 5.287362 141 119 69
-0.536698 -1.635928 5.086005 221 159 79
-0.532046 -1.236423 5.051024 231 146 57
-0.536043 -0.830628 5.111484 139 143 159
-0.538215 -0.808884 5.117990 189 192 199
-0.540411 -1.364346 5.161746 100 85 113
-0.541520 -1.349958 5.163007 132 140 98
-0.541636 -1.308504 5.156008 153 143 122
-0.528343 -1.202829 5.059284 119 120 118
-0.530546 -1.173896 5.070840 61 84 142
-0.535425 -0.821230 5.115392 111 103 124
-0.535137 -0.744801 5.144629 124 125 101
-0.541863 -0.613086 5.184304 244 176 110
-0.543137 -0.551656 5.229998 20 52 122
-0.552747 -0.484707 5.293297 177 131 103
-0.556382 -0.416429 5.340727 65 103 63
-0.535624 -1.610197 5.130080 166 132 71
-0.537572 -1.538840 5.168540 97 118 108
-0.524967 -0.996408 5.062151 239 160 76
-0.531032 -0.781970 5.127419 91 65 95
-0.540294 -0.579358 5.206841 209 215 213
-0.527870 -1.127478 5.091251 158 99 34
-0.521003 -1.073197 5.047798 252 210 181
-0.522185 -1.033487 5.058223 142 117 77
-0.523009 -0.917904 5.079543 239 163 82
-0.532673 -0.723701 5.151945 161 157 133
-0.532685 -0.690035 5.174901 237 230 222
-0.534429 -0.612914 5.186341 255 223 156
-0.547338 -0.517061 5.298939 212 205 192
-0.556316 -0.334067 5.424294 50 30 25
-0.557419 -0.317329 5.420739 60 40 23
-0.532050 -1.560673 5.159327 71 116 82
-0.533227 -1.558750 5.159881 68 114 78
-0.533880 -1.433031 5.191939 191 169 134
-0.530865 -1.345880 5.163838 141 144 102
-0.528683 -1.287677 5.159407 180 164 142
-0.522798 -1.157454 5.085445 76 71 97
-0.520051 -1.095657 5.072140 230 152 66
-0.526513 -0.795022 5.122515 116 108 124
-0.528925 -0.735893 5.147254 138 145 116
-0.534264 -0.544024 5.236320 42 70 143
-0.543012 -0.465613 5.307992 123 124 108
-0.547161 -0.401014 5.355930 65 100 67
-0.536096 -0.216474 5.250303 186 148 31
-0.585403 -0.065421 5.741734 135 126 131
-0.622199 0.276598 6.109926 59 65 43
-0.514338 -1.684445 5.008336 233 170 97
-0.525806 -1.590107 5.146510 192 196 171
-0.531521 -1.519534 5.177300 154 165 173
-0.530864 -1.491853 5.180867 131 91 75
-0.532026 -1.445968 5.184101 173 148 107
-0.519026 -1.233878 5.064164 229 145 50
-0.520958 -0.871094 5.101780 239 230 219
-0.523238 -0.763119 5.139869 230 228 217
-0.525394 -0.684708 5.176864 233 231 219
-0.526027 -0.670704 5.180068 235 227 217
-0.529733 -0.586865 5.204795 210 201 194
-0.547898 -0.364875 5.395391 184 177 149
-0.618047 0.259023 6.113709 71 74 53
-0.511521 -1.660815 5.026219 230 186 56
-0.525605 -1.554681 5.162024 64 111 77
-0.516041 -1.184089 5.072214 113 113 120
-0.515724 -1.168996 5.081047 90 83 105
-0.512986 -1.075017 5.061653 226 168 153
-0.517300 -0.889959 5.095121 240 230 225
-0.527899 -0.642323 5.221149 237 197 146
-0.529937 -0.554154 5.231636 48 74 146
-0.507668 -1.644826 5.023087 209 154 38
-0.526444 -1.403461 5.190512 154 111 61
-0.523764 -1.335947 5.174214 137 136 92
-0.514241 -1.129130 5.090084 219 194 141
-0.509967 -1.094350 5.069366 211 140 65
-0.510955 -1.052601 5.059115 220 215 200
-0.509956 -1.028520 5.062231 227 220 198
-0.513141 -0.909821 5.087286 206 156 111
-0.515303 -0.833440 5.117974 235 233 221
-0.522172 -0.613109 5.192531 254 229 189
-0.544773 -0.309170 5.428479 63 42 21
-0.503397 -1.726411 5.002264 161 151 141
-0.517686 -1.577624 5.156975 77 111 77
-0.521246 -1.484841 5.181099 177 118 89
-0.520124 -1.380816 5.174252 222 206 201
-0.508848 -1.219728 5.070863 202 153 132
-0.508426 -1.026989 5.061264 191 182 164
-0.508180 -0.933019 5.070753 221 152 77
-0.515817 -0.768992 5.140191 230 226 215
-0.519099 -0.665073 5.189127 234 229 220
-0.527156 -0.528889 5.286848 105 90 123
-0.531267 -0.459586 5.315006 122 119 96
-0.533434 -0.405301 5.357058 138 173 137
-0.500217 -1.706753 5.000511 175 167 149
-0.500843 -1.691319 5.004136 194 149 41
-0.502859 -1.630942 5.032431 199 148 40
-0.516421 -1.543263 5.170002 88 95 94
-0.515964 -0.689595 5.176671 232 226 220
-0.518246 -0.589939 5.206838 135 86 46
-0.521301 -0.567694 5.226765 35 59 130
-0.531758 -0.386888 5.377673 96 125 85
-0.513249 -1.569341 5.161111 126 145 114
-0.512221 -1.289873 5.160324 194 187 167
-0.502510 -0.914716 5.087439 223 185 134
-0.522112 -0.512860 5.293686 201 191 170
-0.526386 -0.450533 5.324482 196 199 173
-0.527743 -0.418259 5.347201 114 146 107
-0.530533 -0.379105 5.386399 66 84 47
-0.540782 -0.289647 5.485392 70 54 41
-0.566894 -0.062230 5.755295 78 68 85
-0.572448 -0.036513 5.812684 135 144 142
-0.570549 0.005877 5.808633 101 117 100
-0.570730 0.017123 5.808793 100 126 96
-0.572613 0.039964 5.822250 77 113 81
-0.584687 0.131476 5.964221 130 85 55
-0.506109 -1.617077 5.120976 194 158 136
-0.509036 -1.309300 5.156879 215 206 185
-0.500437 -1.189436 5.078639 181 168 159
-0.567986 -0.008583 5.804960 134 143 124
-0.573643 0.096303 5.877009 143 118 80
-0.508917 -1.533653 5.178978 96 106 125
-0.506538 -1.378484 5.176701 208 191 200
-0.497245 -1.033212 5.068069 170 162 150
-0.501514 -0.838893 5.118886 100 98 137
-0.504115 -0.699384 5.173904 231 228 219
-0.554274 -0.122159 5.694499 159 158 162
-0.563736 0.005925 5.807633 96 112 94
-0.567089 0.078564 5.843636 161 156 144
-0.595586 0.292055 6.140476 105 85 82
-0.488335 -1.700351 5.005423 151 125 58
-0.499074 -1.611693 5.126934 193 181 164
-0.501420 -1.592958 5.143871 156 153 138
-0.503310 -1.514255 5.183896 110 143 192
-0.506795 -1.471207 5.191362 174 122 77
-0.496637 -1.127215 5.093825 175 148 92
-0.496097 -0.854085 5.112322 105 112 139
-0.500182 -0.786093 5.137857 235 227 219
-0.501572 -0.713761 5.166303 207 157 126
-0.501325 -0.686614 5.181295 231 226 217
-0.502741 -0.642604 5.205854 221 206 181
-0.508404 -0.543798 5.244283 34 51 118
-0.522381 -0.377118 5.386265 76 85 49
-0.551166 -0.096367 5.711048 172 167 161
-0.500596 -1.348162 5.173696 167 143 114
-0.498708 -1.285528 5.162985 191 178 157
-0.492019 -1.083818 5.072330 244 229 222
-0.493606 -0.823720 5.124151 119 119 162
-0.496318 -0.733035 5.157456 189 147 120
-0.588017 0.314601 6.163130 52 29 15
-0.481729 -1.719097 5.003439 178 168 164
-0.501391 -1.454070 5.196364 148 106 70
-0.501644 -1.429738 5.197343 91 66 48
-0.497802 -1.335967 5.172302 189 148 114
-0.499828 -0.637719 5.208302 247 203 159
-0.509854 -0.470565 5.325429 225 220 207
-0.510675 -0.443764 5.343926 77 93 63
-0.551206 0.013147 5.793486 102 123 95
-0.576061 0.373955 6.102034 64 50 23
-0.480762 -1.667661 5.027543 225 150 80
-0.487270 -1.178180 5.092115 153 150 162
-0.486056 -1.165226 5.099867 226 221 214
-0.490937 -0.798616 5.135960 236 227 220
-0.502313 -0.512492 5.287302 218 208 191
-0.544335 -0.065084 5.746961 116 110 115
-0.580804 0.288995 6.147304 110 98 92
-0.493435 -1.415256 5.190787 105 104 130
-0.490894 -1.371526 5.180900 220 214 192
-0.489348 -1.306529 5.165167 207 193 177
-0.490729 -1.299629 5.166253 203 187 171
-0.482366 -1.218894 5.078658 210 154 124
-0.482256 -1.041151 5.073552 189 180 171
-0.482846 -0.899752 5.099642 93 86 126
-0.490594 -0.679980 5.192176 231 227 218
-0.491741 -0.613060 5.196049 252 217 202
-0.493068 -0.572966 5.225381 178 184 191
-0.497967 -0.531948 5.263004 164 148 178
-0.504580 -0.416738 5.362244 165 171 143
-0.509421 -0.373256 5.392259 147 141 109
-0.520305 -0.300079 5.512973 58 42 33
-0.544217 -0.037534 5.792505 60 55 70
-0.545616 -0.006918 5.786923 111 121 106
-0.574458 0.245917 6.123251 145 143 127
-0.574868 0.388683 6.120139 66 51 28
-0.490635 -1.499458 5.187259 216 227 225
-0.489707 -1.365846 5.177978 159 123 92
-0.480676 -1.012226 5.076920 240 234 223
-0.477098 -0.944040 5.081288 255 245 248
-0.487260 -0.653019 5.202201 158 146 137
-0.499665 -0.482987 5.315167 173 106 49
-0.503472 -0.432673 5.353582 115 115 87
-0.508667 -0.331086 5.418873 69 44 27
-0.546802 0.105692 5.857793 125 100 45
-0.475229 -1.630341 5.063351 255 233 159
-0.481022 -1.617282 5.104920 248 203 147
-0.486433 -1.568283 5.162299 226 219 210
-0.486430 -1.283616 5.167245 169 154 136
-0.478563 -0.910005 5.100318 77 84 106
-0.482614 -0.765455 5.153256 226 219 215
-0.482521 -0.741907 5.162916 189 150 117
-0.504941 -0.367334 5.398796 191 188 161
-0.513961 -0.288967 5.525431 53 38 29
-0.515633 -0.278457 5.529923 39 26 15
-0.531936 -0.105239 5.708036 92 96 106
-0.539421 0.045194 5.804498 63 90 59
-0.537419 0.059758 5.812831 177 172 149
-0.558239 0.159708 6.000940 112 80 42
-0.569372 0.254989 6.128982 39 43 54
-0.571157 0.288857 6.151384 140 127 124
-0.485760 -1.513674 5.185083 235 235 230
-0.473220 -1.076299 5.068562 254 234 235
-0.471028 -1.011197 5.080618 240 232 225
-0.473877 -0.871308 5.111875 229 238 242
-0.480197 -0.696550 5.184109 234 204 191
-0.484069 -0.634642 5.213118 213 168 127
-0.490083 -0.503717 5.289701 160 108 58
-0.504687 -0.323576 5.429823 79 52 34
-0.478597 -1.317487 5.177951 208 161 124
-0.473944 -0.843379 5.121337 37 65 136
-0.474782 -0.782734 5.149833 111 104 137
-0.481826 -0.554897 5.239175 36 50 110
-0.486273 -0.527785 5.264249 216 212 203
-0.486199 -0.513619 5.275677 219 211 200
-0.498185 -0.333430 5.419122 87 62 49
-0.479414 -1.389936 5.197447 86 79 99
-0.479089 -1.370667 5.187827 176 143 90
-0.478454 -1.350691 5.183003 194 121 47
-0.468581 -1.200424 5.083710 50 61 98
-0.470981 -1.150774 5.109980 86 83 107
-0.468942 -1.110407 5.112875 225 145 52
-0.469760 -0.898833 5.106431 84 116 178
-0.469621 -0.811571 5.136223 233 233 245
-0.477021 -0.584759 5.221560 218 214 205
-0.458448 -1.694031 5.013984 204 161 56
-0.475410 -1.424763 5.201575 81 80 106
-0.463966 -1.219571 5.075184 187 121 76
-0.465615 -0.891479 5.108190 67 97 160
-0.476777 -0.544072 5.246215 93 82 119
-0.486131 -0.422111 5.364337 180 179 172
-0.491937 -0.332462 5.425829 69 47 36
-0.499920 -0.304178 5.516466 77 57 46
-0.502126 -0.264639 5.539824 86 105 56
-0.519072 -0.074873 5.734292 147 145 146
-0.523802 0.033161 5.799585 82 96 66
-0.539249 0.124251 5.967216 144 124 79
-0.557853 0.289041 6.167506 66 52 55
-0.458407 -1.667754 5.030664 251 249 192
-0.463926 -1.615031 5.099475 240 173 115
-0.470318 -1.560693 5.174535 229 225 216
-0.472059 -1.526092 5.189774 253 254 251
-0.475691 -1.405667 5.200972 197 183 175
-0.460352 -1.236594 5.071059 223 144 57
-0.465500 -1.128271 5.113909 160 131 98
-0.460502 -0.948515 5.100343 246 241 235
-0.467541 -0.742760 5.165649 186 143 95
-0.467859 -0.694902 5.187022 209 191 171
-0.468639 -0.674526 5.198855 181 172 164
-0.469615 -0.659027 5.207712 237 230 214
-0.474255 -0.532710 5.255250 218 210 197
-0.487425 -0.376534 5.401996 147 142 115
-0.523011 0.071167 5.824642 137 113 41
-0.451614 -1.695707 5.016210 180 135 40
-0.467898 -1.546512 5.184168 231 225 218
-0.462019 -0.773964 5.154336 124 105 145
-0.467726 -0.610753 5.203843 247 196 131
-0.474907 -0.479888 5.323389 200 177 156
-0.454743 -1.625111 5.073608 206 134 63
-0.462480 -1.589755 5.160837 137 132 124
-0.468287 -1.453613 5.198845 190 189 185
-0.451795 -1.211030 5.080033 226 218 204
-0.458936 -1.146328 5.114952 75 69 104
-0.458176 -0.913755 5.111928 148 152 165
-0.470051 -0.501963 5.278756 164 115 72
-0.492509 -0.310607 5.520380 58 40 26
-0.490443 -0.295515 5.522684 75 53 41
-0.508354 -0.090980 5.722468 146 145 153
-0.512005 -0.058733 5.754304 19 24 50
-0.528502 0.121883 5.968143 133 110 44
-0.447666 -1.695202 5.016960 189 142 46
-0.463321 -1.466614 5.200587 82 69 93
-0.462970 -1.368275 5.190236 196 159 112
-0.460541 -1.306439 5.178436 197 159 132
-0.460483 -1.285125 5.174227 170 155 137
-0.455140 -0.896703 5.110003 81 106 171
-0.474988 -0.432664 5.360829 120 133 118
-0.474107 -0.389804 5.389838 86 114 76
-0.510804 -0.025057 5.786821 111 129 107
-0.511310 0.016974 5.791574 168 173 150
-0.541476 0.285950 6.166357 112 98 94
-0.445991 -1.668609 5.033826 254 252 221
-0.448822 -1.651136 5.047354 207 161 47
-0.459055 -1.486936 5.197216 53 57 79
-0.449540 -1.184680 5.097342 55 61 109
-0.450405 -1.073077 5.099465 225 212 188
-0.449125 -0.877607 5.116360 59 68 119
-0.451837 -0.837316 5.126148 142 103 96
-0.455140 -0.739311 5.171092 190 160 118
-0.524053 0.170789 6.008304 104 90 68
-0.533928 0.217854 6.114363 47 33 22
-0.536895 0.221587 6.119415 52 38 29
-0.451256 -1.618006 5.113228 224 161 105
-0.456788 -1.478158 5.199555 84 76 110
-0.456125 -1.439218 5.206766 138 148 137
-0.453719 -1.310415 5.176161 197 133 75
-0.454500 -1.285723 5.174691 182 166 148
-0.445042 -1.179590 5.100199 56 68 129
-0.449072 -1.139200 5.119777 238 225 216
-0.466437 -0.459362 5.344312 96 105 90
-0.485694 -0.254011 5.561728 95 98 53
-0.492553 -0.152000 5.654601 175 167 157
-0.496012 -0.118443 5.695693 169 165 157
-0.564251 0.687752 6.536627 79 65 38
-0.451357 -1.358222 5.185072 215 189 131
-0.451052 -1.327448 5.174881 186 111 31
-0.441740 -1.021772 5.092877 231 221 206
-0.451152 -0.637422 5.216371 218 197 173
-0.453640 -0.559162 5.240366 106 94 125
-0.460773 -0.474367 5.334079 191 182 172
-0.465619 -0.408110 5.380189 62 97 63
-0.470710 -0.325478 5.448050 59 31 25
-0.476889 -0.265340 5.549334 75 74 43
-0.524920 0.196640 6.088902 73 56 40
-0.526331 0.202862 6.097956 64 48 32
-0.436502 -1.660004 5.049282 238 199 156
-0.441780 -1.627250 5.075292 194 123 46
-0.451722 -1.530112 5.192447 201 147 111
-0.449114 -1.509034 5.193798 212 180 171
-0.452550 -1.420350 5.205668 102 94 99
-0.446835 -1.296875 5.173401 214 197 179
-0.440809 -1.173967 5.103604 44 58 115
-0.440937 -0.917917 5.113990 222 227 222
-0.447335 -0.724390 5.176560 174 121 58
-0.462906 -0.414064 5.375869 55 96 57
-0.483961 -0.152393 5.657818 178 172 159
-0.496562 -0.025411 5.783461 104 121 97
-0.527932 0.261964 6.157228 103 97 83
-0.527361 0.284650 6.171566 126 110 105
-0.444720 -1.586437 5.175847 195 176 159
-0.437897 -0.901602 5.115739 72 81 147
-0.444783 -0.611098 5.206535 250 185 106
-0.444823 -0.576055 5.229325 100 94 105
-0.473340 -0.296389 5.521282 64 49 37
-0.479075 -0.221903 5.605768 185 177 163
-0.435180 -0.895781 5.116473 75 87 127
-0.435593 -0.797308 5.146623 77 77 127
-0.442626 -0.637564 5.211585 170 143 128
-0.446222 -0.543041 5.250961 100 103 84
-0.486890 -0.058349 5.762515 154 155 151
-0.496007 0.071061 5.836584 142 131 97
-0.512138 0.201604 6.087328 65 48 34
-0.440398 -1.566452 5.193830 207 164 144
-0.434936 -0.844659 5.124503 223 157 62
-0.436911 -0.777738 5.158348 216 210 227
-0.436963 -0.673691 5.197341 231 221 214
-0.440199 -0.573150 5.232204 170 158 162
-0.454054 -0.385896 5.399234 154 155 128
-0.467966 -0.266484 5.561546 143 126 108
-0.486769 0.026294 5.801740 64 97 67
-0.487996 0.058244 5.832597 188 193 170
-0.513911 0.241352 6.134766 138 134 116
-0.423665 -1.699596 5.021974 163 132 57
-0.424699 -1.682442 5.032442 240 209 70
-0.426272 -1.643204 5.069463 223 181 63
-0.436901 -1.359151 5.190739 192 156 113
-0.430106 -1.141571 5.116525 134 106 124
-0.429934 -1.118396 5.134962 228 147 51
-0.427873 -0.982791 5.105139 253 228 107
-0.430414 -0.935855 5.110716 90 96 134
-0.430664 -0.856891 5.122088 253 213 96
-0.433871 -0.697091 5.188739 229 220 212
-0.435354 -0.656398 5.207715 217 207 196
-0.445647 -0.474185 5.337367 106 110 92
-0.479945 -0.032074 5.783233 121 116 105
-0.500301 0.129777 6.007326 116 102 76
-0.510525 0.282633 6.160198 116 103 93
