ply
format ascii 1.0
element vertex 1236
property float x
property float y
property float z
property uchar red
property uchar green
property uchar blue
end_header
-1.064033 -1.284923 5.092153 73 88 87
-1.070824 -1.198319 5.110741 45 51 24
-1.069686 -1.071738 5.124183 94 83 48
-1.074744 -0.952361 5.140040 54 67 54
-1.079732 -0.877484 5.169279 86 80 29
-1.089931 -0.533133 5.211161 51 63 21
-1.097966 -0.253557 5.263928 118 56 26
-1.099121 -0.211476 5.256686 124 111 59
-1.100752 0.056260 5.281909 78 112 95
-1.103042 0.115718 5.292521 148 154 85
-1.107954 0.261846 5.302347 71 62 59
-1.087835 -0.461594 5.221212 98 114 81
-1.096019 -0.230004 5.262792 133 66 39
-1.100306 0.192388 5.295958 64 37 31
-1.103372 0.282403 5.303720 80 68 65
-1.102858 0.465659 5.306142 128 144 92
-1.061521 -1.229883 5.104383 88 63 26
-1.068081 -1.002871 5.137135 143 147 73
-1.073689 -0.887505 5.165021 55 49 14
-1.073348 -0.845859 5.168231 118 120 115
-1.078081 -0.726916 5.180730 73 65 51
-1.080487 -0.594596 5.201704 83 107 93
-1.086359 -0.502536 5.223479 63 88 63
-1.087304 -0.483638 5.223000 74 89 80
-1.088045 -0.329428 5.242736 142 155 75
-1.093436 -0.063367 5.277873 91 98 95
-1.097760 0.169546 5.301521 65 40 29
-1.059039 -1.219187 5.104961 133 126 78
-1.059746 -1.173143 5.114532 37 52 30
-1.062239 -1.120793 5.121731 60 77 38
-1.059986 -1.062605 5.121284 94 74 58
-1.079372 -0.644365 5.198099 80 96 87
-1.086396 -0.285891 5.245688 119 77 33
-1.092108 -0.085272 5.272985 56 56 49
-1.089131 0.018784 5.267826 87 91 74
-1.092441 0.071895 5.280071 52 59 37
-1.097613 0.129356 5.302635 148 153 86
-1.098235 0.158488 5.305890 68 47 23
-1.097188 0.258020 5.304983 80 47 37
-1.095324 0.403475 5.290611 76 84 59
-1.098763 0.507811 5.318979 90 94 56
-1.056182 -1.183160 5.110778 55 77 62
-1.057422 -1.147796 5.116609 84 91 31
-1.059087 -0.969982 5.137017 95 103 68
-1.069288 -0.857409 5.173481 87 84 78
-1.068379 -0.839438 5.164595 96 98 85
-1.071365 -0.608033 5.191011 91 113 104
-1.076769 -0.564586 5.210071 128 142 76
-1.079872 -0.344834 5.225740 144 152 78
-1.089072 -0.141686 5.271695 49 65 38
-1.088364 -0.026854 5.274529 59 60 55
-1.090108 -0.012022 5.274156 118 113 109
-1.088290 0.004207 5.272202 115 106 103
-1.091935 0.181394 5.299300 65 50 29
-1.091447 0.201903 5.289257 131 127 92
-1.091603 0.220504 5.287328 113 78 67
-1.092782 0.360849 5.300062 77 73 37
-1.092873 0.492562 5.308585 65 70 43
-1.092785 0.741276 5.402751 198 211 211
-1.049547 -1.256147 5.093798 37 50 41
-1.051921 -1.105000 5.119063 49 57 39
-1.059863 -0.953968 5.141109 54 66 37
-1.061263 -0.905841 5.154211 46 49 22
-1.063972 -0.820008 5.161693 107 117 87
-1.079412 -0.293266 5.251928 135 91 46
-1.084165 0.063706 5.276126 64 83 73
-1.090241 0.120224 5.301331 150 161 83
-1.088405 0.479912 5.299827 114 117 80
-1.049997 -1.216921 5.104318 45 52 28
-1.063755 -0.867362 5.173677 51 45 33
-1.066379 -0.690416 5.185764 141 149 74
-1.071366 -0.554059 5.210373 53 65 29
-1.081434 -0.255949 5.264325 122 57 26
-1.077826 -0.205752 5.251983 131 109 64
-1.080747 0.056895 5.272950 104 119 96
-1.085764 0.241008 5.296133 131 80 72
-1.084208 0.297569 5.300810 120 110 103
-1.087926 0.724039 5.396087 197 205 204
-1.046348 -1.233087 5.100721 106 94 66
-1.046697 -1.156329 5.113456 84 92 57
-1.056212 -0.790647 5.168648 120 119 93
-1.058579 -0.777989 5.172030 97 87 89
-1.059178 -0.763451 5.175863 83 83 72
-1.060938 -0.620251 5.189528 57 68 60
-1.067655 -0.534490 5.209691 94 113 85
-1.075018 0.028542 5.261660 99 105 67
-1.082764 0.288357 5.302348 115 117 107
-1.082512 0.360779 5.299481 71 67 38
-1.082812 0.405309 5.292535 122 130 97
-1.086928 0.426358 5.311678 98 97 67
-1.083598 0.466229 5.301111 91 97 91
-1.044623 -1.124738 5.114472 47 58 34
-1.042801 -1.106313 5.116031 50 53 46
-1.045942 -1.066486 5.118176 51 49 13
-1.051133 -0.916320 5.147844 63 57 28
-1.055313 -0.717367 5.176781 136 146 74
-1.065547 -0.500526 5.220756 139 146 72
-1.075769 -0.234002 5.260984 129 65 47
-1.071875 -0.131446 5.263539 38 62 40
-1.073363 -0.100645 5.261153 68 64 12
-1.075599 -0.052401 5.276190 68 67 60
-1.081783 0.146383 5.297998 56 63 37
-1.076406 0.208989 5.285311 82 54 31
-1.080330 0.505242 5.311131 121 121 95
-1.042894 -1.026091 5.124167 54 63 22
-1.048751 -0.810680 5.160698 101 96 92
-1.076185 0.136041 5.296576 40 43 26
-1.100939 0.591589 5.414146 70 93 80
-1.047387 -0.879841 5.157585 95 96 62
-1.056644 -0.554997 5.208423 45 57 33
-1.062735 -0.397675 5.232728 122 84 41
-1.059265 -0.334564 5.241337 145 153 75
-1.069957 -0.066472 5.275804 126 130 89
-1.073206 0.157845 5.296193 112 124 113
-1.070594 0.401967 5.291341 68 64 32
-1.083185 0.672550 5.359379 188 216 202
-1.033607 -1.145124 5.109622 42 44 22
-1.040866 -0.937563 5.138609 140 144 65
-1.050105 -0.669677 5.190173 146 149 81
-1.051572 -0.585228 5.197556 137 145 70
-1.053785 -0.535951 5.207844 66 81 57
-1.052149 -0.437676 5.212625 76 97 48
-1.063715 -0.203451 5.252629 136 117 82
-1.063570 -0.186270 5.260753 84 98 55
-1.061366 0.057807 5.262532 130 141 128
-1.068547 0.456538 5.301383 91 86 87
-1.028606 -1.281335 5.092985 87 99 88
-1.032503 -1.196901 5.104144 77 84 60
-1.030679 -1.157254 5.108067 112 121 84
-1.034685 -1.046342 5.122363 136 141 68
-1.034086 -0.964819 5.133498 48 64 44
-1.040280 -0.816703 5.157764 53 44 34
-1.042803 -0.788866 5.168288 87 82 42
-1.043261 -0.747901 5.171387 51 45 23
-1.046070 -0.636093 5.189500 48 56 34
-1.045604 -0.620692 5.188819 37 65 35
-1.052081 -0.571612 5.208964 145 147 81
-1.061635 -0.171721 5.264096 86 107 66
-1.061536 -0.156796 5.268396 45 48 35
-1.063551 -0.028033 5.271074 127 132 113
-1.065946 0.232164 5.292538 80 48 20
-1.066578 0.338248 5.297941 110 103 76
-1.065968 0.359481 5.299239 74 74 39
-1.027096 -1.132592 5.107814 82 99 93
-1.035052 -0.897625 5.147739 47 45 34
-1.041465 -0.694764 5.179779 75 85 60
-1.042248 -0.600087 5.189400 137 148 78
-1.055296 -0.378136 5.253816 130 104 61
-1.060845 0.004146 5.270156 72 84 59
-1.061962 0.258784 5.299068 112 113 80
-1.063064 0.284527 5.305916 86 91 59
-1.062461 0.434107 5.294695 70 67 58
-1.063239 0.494900 5.297946 120 129 102
-0.998185 -1.485091 5.188336 169 132 105
-1.023273 -1.114697 5.109415 96 108 89
-1.028495 -1.003640 5.126769 81 93 54
-1.028749 -0.986847 5.127685 73 82 67
-1.027250 -0.966952 5.129311 48 63 43
-1.031205 -0.945404 5.136310 137 140 75
-1.035510 -0.835550 5.158468 77 70 31
-1.047985 -0.478916 5.226166 146 152 86
-1.046262 -0.419619 5.220987 116 83 30
-1.052971 -0.372196 5.254927 113 87 36
-1.053175 -0.302286 5.249099 129 80 36
-1.053720 -0.259340 5.255557 148 122 68
-1.055964 -0.226527 5.258942 127 67 46
-1.054813 -0.201749 5.258600 103 109 97
-1.053419 -0.139919 5.262587 44 65 51
-1.055402 -0.100453 5.255167 145 156 84
-1.056328 -0.058186 5.269993 85 76 51
-1.056118 -0.037076 5.271070 61 62 59
-1.055085 0.019447 5.260150 82 94 59
-1.051673 0.045621 5.255261 57 69 51
-1.053788 0.057418 5.259966 81 91 61
-1.058914 0.177869 5.292384 80 90 77
-1.058999 0.243099 5.291857 67 52 28
-1.076005 0.614023 5.379237 123 133 73
-1.075943 0.624351 5.375891 53 62 36
-1.078159 0.634949 5.378773 65 82 45
-1.022963 -1.221976 5.099536 112 121 79
-1.023904 -1.216831 5.099804 43 57 47
-1.050606 0.032966 5.254272 84 96 78
-1.054699 0.271937 5.297596 70 67 35
-1.057826 0.311225 5.299938 66 69 32
-1.057924 0.326901 5.298962 118 126 84
-1.059231 0.470945 5.297567 84 82 79
-1.058559 0.539743 5.322905 141 117 76
-1.061666 0.692409 5.341990 217 222 225
-1.033108 -0.622976 5.185947 47 68 44
-1.036203 -0.593457 5.191806 141 149 72
-1.038491 -0.546940 5.206148 48 74 60
-1.039479 -0.470396 5.222724 138 148 77
-1.047934 -0.248446 5.256908 134 78 47
-1.047591 -0.098710 5.255199 146 157 81
-1.014424 -1.160743 5.102228 114 123 77
-1.032593 -0.586089 5.199406 140 154 69
-1.043059 -0.316138 5.244253 130 118 49
-1.045638 -0.170931 5.264990 65 87 70
-1.044829 -0.112219 5.255195 140 154 75
-1.049347 0.130952 5.285704 55 66 59
-1.047020 0.168069 5.286273 124 131 89
-1.051628 0.382588 5.295496 149 160 82
-1.053491 0.461132 5.303016 101 105 88
-1.052560 0.529665 5.319007 142 148 87
-1.071841 0.595692 5.393704 62 69 48
-1.011268 -1.180909 5.098896 62 68 31
-1.012242 -1.111205 5.108750 47 55 29
-1.014667 -1.086582 5.115001 135 136 58
-1.014173 -1.079445 5.118180 140 142 64
-1.026064 -0.720834 5.175455 142 150 75
-1.024858 -0.672285 5.177145 75 87 52
-1.031849 -0.507396 5.208637 46 61 34
-1.035921 -0.346890 5.244691 126 98 55
-1.041478 -0.046241 5.265722 125 117 95
-1.045504 0.184884 5.293082 123 129 120
-1.047067 0.500771 5.300197 108 93 75
-1.062278 0.652012 5.374244 104 117 78
-1.012184 -1.071522 5.121159 138 139 60
-1.016504 -0.907861 5.140089 47 44 25
-1.021532 -0.742978 5.171257 146 154 81
-1.020897 -0.729059 5.175808 139 153 68
-1.023208 -0.655347 5.178241 86 91 56
-1.025442 -0.530555 5.202403 59 70 58
-1.039326 -0.221207 5.259449 125 63 33
-1.040645 -0.205733 5.260067 125 119 93
-1.041071 -0.155201 5.273640 97 112 90
-1.043855 0.113878 5.284144 127 144 128
-1.047083 0.357210 5.297780 148 161 86
-1.046319 0.508408 5.303014 104 98 77
-1.004110 -1.191260 5.096130 68 90 83
-1.010741 -1.080678 5.118170 137 141 64
-1.007349 -0.986987 5.124546 85 104 77
-1.018586 -0.641801 5.177480 82 104 93
-1.029231 -0.401471 5.234876 119 64 29
-1.032344 -0.296403 5.248796 121 91 45
-1.040104 0.076872 5.286458 150 156 84
-1.041279 0.105353 5.287004 82 91 78
-1.038625 0.165875 5.284472 102 118 105
-1.002971 -1.194401 5.096193 36 57 45
-1.001278 -1.157894 5.098443 77 86 33
-1.006622 -1.014315 5.125542 100 116 86
-1.013638 -0.859679 5.159457 133 137 60
-1.015218 -0.781211 5.169715 99 112 87
-1.017363 -0.728915 5.176101 141 153 69
-1.023641 -0.565960 5.202763 140 148 74
-1.022693 -0.450359 5.215162 140 147 77
-1.021769 -0.433463 5.216172 135 115 46
-1.031179 -0.125027 5.262943 51 66 35
-1.031061 -0.101505 5.257374 146 160 76
-1.036330 0.438835 5.290299 81 74 44
-1.049788 0.618978 5.354439 105 117 86
-0.998615 -1.229856 5.094242 136 113 79
-1.017294 -0.587332 5.205311 141 147 73
-1.026584 -0.286144 5.249574 116 86 44
-1.024479 -0.250140 5.252822 121 68 20
-1.029424 -0.233902 5.253365 121 55 32
-1.028639 -0.095041 5.257869 147 160 82
-1.031792 0.242963 5.284126 92 104 81
-0.994392 -1.175879 5.093385 71 78 50
-0.995147 -1.128555 5.101537 68 80 49
-0.996216 -1.108285 5.104838 80 80 59
-1.004097 -0.884655 5.146356 136 143 65
-1.007791 -0.675647 5.173227 41 71 45
-1.008483 -0.646297 5.174143 54 75 54
-1.012100 -0.618498 5.188457 137 142 77
-1.014244 -0.536535 5.199142 133 139 81
-1.020148 -0.324735 5.240118 143 147 80
-1.023090 -0.022088 5.255810 147 158 80
-1.031505 0.081935 5.287217 149 157 77
-1.031901 0.328625 5.290615 42 57 37
-1.033161 0.476446 5.299380 105 108 81
-1.010232 -0.601488 5.201376 144 146 80
-1.017571 -0.391096 5.231651 140 104 64
-1.016805 -0.358635 5.242635 126 61 43
-1.021131 -0.282696 5.248394 128 91 57
-1.026914 0.134577 5.275718 138 145 83
-1.028622 0.311658 5.295975 84 86 74
-1.030707 0.529965 5.309564 64 70 35
-0.991304 -1.087861 5.114325 141 143 67
-0.993907 -0.941916 5.130296 142 146 70
-1.011925 -0.472912 5.217005 142 148 74
-1.014962 -0.381501 5.239567 141 114 64
-1.026635 0.083618 5.287286 147 159 79
-1.022660 0.226108 5.283794 32 45 21
-1.026173 0.373980 5.304668 68 75 61
-1.034172 0.687035 5.346982 203 228 221
-0.993436 -0.896759 5.145213 131 132 66
-0.995981 -0.843714 5.154597 89 102 64
-1.004896 -0.518902 5.198018 112 73 29
-1.004826 -0.510766 5.198225 109 85 35
-1.009332 -0.416621 5.222657 120 61 28
-1.013609 -0.236566 5.247745 127 61 42
-1.017857 -0.171254 5.266960 144 157 80
-1.021110 0.013181 5.288144 96 105 65
-1.021487 0.204551 5.288599 124 136 56
-1.025538 0.457636 5.306861 149 157 88
-1.034965 0.666621 5.365715 54 70 59
-0.982596 -1.191211 5.093735 78 91 50
-0.983091 -1.128706 5.099186 66 83 66
-0.992217 -0.818915 5.156044 139 147 79
-0.997356 -0.639421 5.181792 130 144 73
-1.001930 -0.538423 5.197366 116 81 30
-1.003155 -0.440834 5.215752 143 125 58
-1.010614 -0.229166 5.249566 126 60 34
-1.012778 -0.164307 5.269413 142 152 76
-1.016954 0.055298 5.288962 79 102 59
-1.017042 0.127160 5.273282 133 142 104
-1.016110 0.327093 5.287042 57 72 49
-1.021999 0.487277 5.312073 68 66 48
-1.033439 0.655051 5.375073 43 64 57
-0.984676 -1.059360 5.126192 44 37 5
-0.985077 -0.998608 5.124390 72 94 71
-0.984344 -0.975563 5.126119 66 73 61
-0.998469 -0.497316 5.203205 125 105 54
-1.011444 -0.214436 5.254670 144 113 65
-1.007120 -0.121845 5.261801 62 75 60
-1.013899 -0.000390 5.277226 75 80 48
-1.014658 0.103194 5.278733 54 60 32
-1.013604 0.115808 5.274428 141 147 136
-1.010994 0.174604 5.278476 72 79 50
-1.011406 0.244594 5.274787 114 131 109
-1.012087 0.348029 5.280025 144 161 81
-1.013241 0.557066 5.304276 94 81 55
-1.029235 0.635534 5.369480 35 61 52
-0.949944 -1.427502 5.196655 127 165 170
-0.974609 -1.157363 5.093400 62 69 35
-0.974523 -1.143685 5.096255 93 98 65
-0.981648 -1.031659 5.125308 77 81 51
-0.987353 -0.859238 5.152243 51 56 17
-0.988126 -0.785451 5.168634 102 106 69
-0.990954 -0.702296 5.182915 90 101 47
-1.000108 -0.337938 5.231010 125 73 43
-1.006036 -0.132960 5.261771 107 112 80
-1.006956 -0.051834 5.272144 68 79 43
-1.012173 0.030876 5.289912 49 82 56
-1.010966 0.305998 5.293681 89 101 57
-1.010841 0.402073 5.300931 95 118 63
-1.016310 0.491372 5.316088 128 131 128
-0.980648 -0.921686 5.146792 133 140 63
-0.985482 -0.797232 5.162902 139 150 80
-0.989148 -0.722722 5.179913 94 101 80
-0.994301 -0.404116 5.220683 140 116 75
-0.997734 -0.310569 5.235280 145 105 51
-1.003678 -0.081662 5.263352 76 86 45
-1.003449 -0.070681 5.264226 85 97 73
-1.004034 -0.036740 5.277304 89 100 57
-1.005817 0.018982 5.280118 47 78 55
-1.004255 0.137821 5.268511 115 116 83
-1.006942 0.226505 5.279252 57 62 49
-1.019301 0.679576 5.359349 77 112 98
-0.967487 -1.287668 5.085483 77 96 90
-0.969199 -1.112473 5.098489 84 90 56
-0.979238 -0.841944 5.149341 79 88 53
-0.985419 -0.661018 5.178889 133 146 63
-0.986829 -0.655041 5.179393 137 145 66
-0.989881 -0.617612 5.202689 51 62 30
-0.988767 -0.601563 5.202014 67 72 40
-0.993969 -0.340781 5.230753 122 64 35
-0.995180 -0.253958 5.242925 131 80 33
-1.001233 -0.031008 5.274326 72 89 54
-1.001406 0.217768 5.285485 134 146 79
-0.973047 -0.959022 5.134807 136 140 64
-0.987355 -0.623700 5.201494 67 77 58
-0.986337 -0.562177 5.198868 139 144 74
-0.989778 -0.386971 5.225530 115 78 35
-0.990431 -0.352477 5.231554 128 63 31
-0.993815 -0.170701 5.255436 103 123 104
-0.996699 -0.094493 5.261631 95 104 52
-1.003014 0.383354 5.301286 83 94 66
-1.002216 0.435089 5.301568 97 93 51
-1.005694 0.486646 5.315569 110 115 83
-0.971122 -1.030722 5.123707 47 53 36
-0.970042 -1.015383 5.121368 75 87 70
-0.973065 -0.916658 5.148016 142 145 75
-0.974111 -0.783717 5.164946 74 92 75
-0.982327 -0.547184 5.197645 128 90 32
-0.990842 -0.149708 5.259519 75 95 57
-0.993265 -0.017979 5.270659 84 92 50
-0.997068 0.073207 5.285248 53 81 34
-0.997195 0.320679 5.285170 53 63 53
-0.961236 -1.177048 5.094268 51 64 47
-0.980748 -0.625094 5.199200 87 102 90
-0.984062 -0.371952 5.229980 141 99 55
-0.984767 -0.323562 5.236091 147 123 76
-0.982884 -0.238428 5.235731 128 63 36
-0.988291 -0.220246 5.247602 129 72 35
-0.990532 -0.200776 5.253025 147 155 80
-0.989705 -0.121417 5.257570 60 77 47
-0.990463 -0.071613 5.259527 52 74 56
-0.993961 -0.043911 5.280629 51 67 57
-0.992293 0.057213 5.282475 69 81 65
-0.994909 0.108580 5.274283 54 56 44
-0.992885 0.136896 5.267280 124 109 106
-0.989754 0.259035 5.266893 72 96 54
-0.994135 0.401834 5.296605 58 84 44
-0.957587 -1.213707 5.092991 78 89 65
-0.955848 -1.095117 5.101392 133 135 57
-0.963876 -0.941712 5.138989 141 145 66
-0.968473 -0.932300 5.146231 138 144 72
-0.967555 -0.839934 5.144802 63 74 41
-0.967020 -0.816152 5.148695 138 148 80
-0.971193 -0.689313 5.179159 52 61 31
-0.978288 -0.434150 5.211498 129 76 35
-0.981065 -0.417171 5.217159 142 119 70
-0.979888 -0.277366 5.234792 140 118 72
-0.986141 0.275106 5.267932 84 96 53
-0.955193 -1.163933 5.091907 43 58 37
-0.952118 -1.154016 5.090907 61 80 56
-0.954041 -1.130214 5.093317 63 67 53
-0.962064 -0.898319 5.145484 43 43 4
-0.964520 -0.855704 5.143382 62 70 49
-0.975941 -0.617659 5.197734 58 81 66
-0.972356 -0.470689 5.206814 118 63 33
-0.977750 -0.343095 5.226677 124 64 35
-0.976207 -0.261672 5.236787 145 119 64
-0.983436 0.143001 5.264644 47 46 48
-0.989705 0.200633 5.293198 92 102 81
-0.988664 0.313549 5.285674 50 68 53
-0.985142 0.337083 5.276528 98 116 70
-0.954221 -1.056182 5.117851 105 86 69
-0.957279 -1.016127 5.118569 84 89 56
-0.957249 -0.942868 5.136312 139 144 62
-0.963935 -0.770963 5.161776 71 86 74
-0.962886 -0.705823 5.172758 65 78 59
-0.970377 -0.639518 5.191274 40 48 17
-0.970868 -0.602705 5.195001 74 87 68
-0.971587 -0.526792 5.217140 123 63 33
-0.970373 -0.460874 5.202859 109 78 32
-0.977440 -0.163685 5.251621 55 80 74
-0.977190 -0.135969 5.251359 68 97 83
-0.980222 -0.102762 5.256047 57 63 47
-0.982826 -0.021175 5.273744 61 76 68
-0.981975 -0.000035 5.263137 41 57 45
-0.985690 0.390471 5.297277 92 119 113
-0.970558 -0.404165 5.214214 133 94 45
-0.979760 0.073517 5.283343 70 91 66
-0.980821 0.112630 5.274965 52 60 40
-0.979131 0.159862 5.266709 78 82 71
-0.977250 0.288096 5.271574 43 72 48
-0.979741 0.345476 5.271680 110 127 74
-0.979070 0.364252 5.286098 95 106 63
-0.994322 0.680503 5.365753 65 84 78
-0.987878 0.713790 5.342356 230 235 236
-0.981635 0.736890 5.338333 225 231 231
-0.946148 -1.183653 5.100092 142 144 76
-0.944392 -1.081464 5.104652 50 46 12
-0.948779 -1.037454 5.118008 99 78 35
-0.947082 -0.995251 5.115730 136 139 61
-0.967105 -0.366272 5.221377 126 62 34
-0.973002 -0.184539 5.246452 142 152 81
-0.974844 -0.082629 5.255279 109 124 93
-0.937908 -1.290146 5.082380 82 100 94
-0.947968 -1.013881 5.116044 53 61 33
-0.949041 -0.815453 5.143395 101 112 73
-0.950915 -0.804415 5.148856 88 99 61
-0.951403 -0.779481 5.158154 45 64 51
-0.953170 -0.687754 5.171654 56 65 56
-0.961909 -0.520174 5.216872 116 76 32
-0.964125 -0.492793 5.227053 121 51 32
-0.968504 -0.215501 5.248366 147 133 81
-0.972968 -0.120930 5.256882 132 150 81
-0.971251 0.020553 5.260035 145 159 80
-0.946443 -0.917246 5.144481 40 38 13
-0.955617 -0.647777 5.187013 81 86 53
-0.970677 0.060472 5.277866 78 99 76
-0.967475 0.184264 5.268543 75 78 52
-0.970454 0.247294 5.274775 122 147 90
-0.973965 0.390355 5.295925 72 88 66
-0.936095 -1.156951 5.092410 44 40 9
-0.936564 -1.096308 5.100276 47 41 22
-0.954840 -0.373742 5.218838 117 58 32
-0.959866 -0.241465 5.237738 128 61 41
-0.965682 -0.100754 5.253616 62 85 52
-0.965572 0.000429 5.259117 95 112 81
-0.965224 0.151408 5.265178 77 66 67
-0.967271 0.339216 5.273655 60 89 64
-0.968039 0.368488 5.282155 64 85 80
-0.984568 0.692198 5.291690 164 196 182
-0.939637 -0.872053 5.140712 126 129 52
-0.941269 -0.739982 5.153890 88 99 55
-0.949830 -0.631887 5.186389 55 66 49
-0.949153 -0.584537 5.189444 54 65 47
-0.952148 -0.396962 5.210781 140 130 68
-0.956152 -0.320421 5.231875 144 109 72
-0.956466 -0.305046 5.235909 116 69 36
-0.954536 -0.282280 5.232938 131 67 39
-0.955244 -0.277021 5.233292 125 60 34
-0.961914 0.135153 5.270084 65 59 56
-0.966003 0.424338 5.289252 78 87 67
-0.975545 0.612539 5.238652 75 72 69
-0.978078 0.750585 5.275931 228 234 234
-0.927505 -1.277003 5.083663 39 46 40
-0.932867 -0.999838 5.113446 94 100 68
-0.937775 -0.914287 5.141146 43 38 25
-0.939604 -0.790392 5.152571 52 75 52
-0.939880 -0.717369 5.160733 78 91 50
-0.941431 -0.689030 5.168187 91 96 72
-0.951923 -0.286514 5.231881 126 71 32
-0.958543 -0.100467 5.253681 103 116 75
-0.955685 -0.068434 5.254504 124 140 84
-0.977031 0.694175 5.291234 114 153 136
-0.928719 -1.063254 5.108525 52 50 29
-0.935306 -0.945098 5.133637 67 73 25
-0.934739 -0.889434 5.137071 58 48 39
-0.935202 -0.823694 5.140368 63 75 58
-0.936679 -0.802475 5.148964 43 68 45
-0.935853 -0.760822 5.154593 43 55 51
-0.946965 -0.421861 5.214572 114 64 27
-0.947062 -0.389937 5.219795 143 123 71
-0.955493 -0.197024 5.247957 130 79 40
-0.958195 0.121641 5.277833 114 117 113
-0.951966 0.171340 5.266016 118 129 93
-0.963786 0.286017 5.305940 148 165 88
-0.925661 -0.984532 5.116081 111 118 72
-0.925745 -0.968919 5.121162 115 119 64
-0.942430 -0.533510 5.208105 66 67 47
-0.945074 -0.485278 5.219697 145 127 66
-0.944066 -0.434551 5.216067 121 57 29
-0.951819 -0.211448 5.247656 133 68 44
-0.948167 -0.132907 5.241918 149 159 91
-0.952425 0.003598 5.255984 111 130 92
-0.954481 0.244973 5.282450 65 89 50
-0.951547 0.265636 5.267743 146 161 78
-0.975005 0.677597 5.310830 44 65 54
-0.919563 -1.083907 5.102819 60 43 39
-0.926875 -0.941406 5.134386 84 100 81
-0.930151 -0.747234 5.154045 39 52 43
-0.937074 -0.631969 5.184197 57 68 50
-0.940219 -0.539254 5.205332 68 82 61
-0.941589 -0.516076 5.211057 74 87 66
-0.940152 -0.473226 5.207930 136 97 54
-0.938129 -0.461417 5.205059 126 67 33
-0.944773 -0.175970 5.235440 125 97 54
-0.949898 -0.054804 5.266745 97 115 93
-0.948007 -0.013842 5.259992 57 71 53
-0.952748 0.223661 5.285466 98 101 79
-0.975642 0.664903 5.320957 52 62 62
-0.916385 -1.210078 5.092142 144 145 83
-0.936898 -0.490928 5.216695 135 142 75
-0.935209 -0.452657 5.209786 117 76 28
-0.939376 -0.402086 5.225620 127 62 35
-0.937002 -0.376197 5.216671 140 104 57
-0.934599 -0.342033 5.209670 139 108 67
-0.941267 -0.143208 5.240677 147 159 78
-0.943961 -0.110077 5.257676 140 152 77
-0.947550 0.348433 5.273283 143 162 79
-0.950992 0.402487 5.291843 47 59 32
-0.946971 -1.545601 5.315245 214 176 132
-0.916788 -1.042799 5.113833 134 139 73
-0.924740 -0.788305 5.154073 141 148 81
-0.925038 -0.717261 5.158387 46 63 50
-0.928862 -0.649546 5.183723 34 40 28
-0.928079 -0.607676 5.177791 142 150 78
-0.941891 -0.079956 5.256461 36 59 35
-0.945367 -0.029979 5.265959 140 152 80
-0.952057 0.264747 5.305546 143 161 80
-0.945186 0.372584 5.283658 145 153 79
-0.908468 -1.169227 5.093095 119 117 77
-0.910815 -1.137945 5.091216 115 112 84
-0.917926 -0.831293 5.133723 75 65 15
-0.933611 -0.288829 5.236925 142 147 76
-0.935905 -0.267488 5.242795 141 106 41
-0.941654 0.088833 5.276861 100 89 70
-0.941196 0.420999 5.283368 97 120 89
-0.906731 -1.184988 5.093271 23 22 0
-0.910752 -1.110401 5.111799 58 45 33
-0.912418 -1.007482 5.116435 94 107 84
-0.912454 -0.972943 5.123405 72 93 79
-0.914240 -0.952900 5.127327 38 57 45
-0.923489 -0.672251 5.178618 45 56 16
-0.926418 -0.522083 5.207944 56 79 67
-0.929502 -0.441814 5.216882 143 98 55
-0.927264 -0.350636 5.207673 135 109 72
-0.932751 -0.177732 5.236704 124 96 49
-0.936522 -0.111406 5.262462 132 145 65
-0.933914 0.030179 5.248492 146 153 82
-0.937398 0.242193 5.276480 62 89 58
-0.909179 -0.992774 5.119199 54 71 60
-0.922230 -0.494428 5.210430 59 83 42
-0.925937 -0.413291 5.230085 121 61 25
-0.928134 -0.292235 5.237278 139 147 75
-0.930598 0.014482 5.253376 39 61 18
-0.935805 0.123673 5.279919 49 43 38
-0.939746 0.386637 5.298340 147 160 81
-0.916686 -0.647580 5.181142 78 95 90
-0.920532 -0.472551 5.209745 144 148 81
-0.927447 -0.217081 5.242144 145 120 78
-0.927871 -0.184728 5.237362 135 90 50
-0.929025 -0.132342 5.265982 151 160 81
-0.928874 -0.040734 5.266205 144 156 83
-0.926264 0.005636 5.257941 88 109 96
-0.933603 0.356878 5.299384 151 160 81
-0.954777 0.682338 5.315028 36 55 44
-0.903299 -1.088426 5.117499 129 133 62
-0.905156 -0.892836 5.125326 70 59 44
-0.904036 -0.861560 5.132403 124 124 73
-0.916061 -0.555454 5.189808 71 75 49
-0.918956 -0.388812 5.229009 127 59 43
-0.927368 0.109889 5.273036 61 52 44
-0.927999 0.172418 5.267802 59 83 43
-0.926052 0.184245 5.267923 104 115 72
-0.929056 0.204761 5.273843 59 68 52
-0.894541 -1.147480 5.089439 87 77 69
-0.897869 -1.115923 5.112484 126 124 78
-0.909695 -0.614670 5.173547 72 86 66
-0.915667 -0.491315 5.209087 67 88 53
-0.924865 0.208507 5.271250 93 115 112
-0.925260 0.321388 5.279172 72 88 69
-0.928803 0.355126 5.300682 153 161 88
-0.895418 -1.016100 5.114892 40 50 15
-0.896847 -0.946814 5.128706 136 142 75
-0.898750 -0.912784 5.131095 137 138 70
-0.913464 -0.421978 5.225701 140 131 68
-0.915121 -0.300558 5.236028 148 138 86
-0.924457 0.116085 5.275345 122 128 103
-0.919474 0.226556 5.266886 49 72 54
-0.891644 -1.100846 5.115064 88 91 45
-0.898250 -0.757312 5.156844 141 148 77
-0.912226 -0.319616 5.223010 124 71 40
-0.911373 -0.272727 5.238673 142 124 71
-0.916279 -0.027294 5.264537 147 158 82
-0.917125 0.167912 5.262744 106 126 123
-0.920234 0.292459 5.284120 60 65 32
-0.921156 0.773141 5.201847 227 232 232
-0.885188 -1.158532 5.087184 67 64 61
-0.889798 -0.933053 5.131563 142 145 68
-0.891988 -0.921861 5.131781 139 143 66
-0.896598 -0.790896 5.152390 61 62 21
-0.910360 -0.186614 5.231239 149 153 76
-0.912068 -0.037718 5.259797 148 159 85
-0.912405 0.143739 5.271430 93 88 86
-0.937507 0.647602 5.308607 82 60 44
-0.929263 0.731187 5.262793 230 236 236
-0.930303 0.747752 5.266389 232 238 238
-0.880420 -1.294953 5.077651 33 43 20
-0.881427 -1.207572 5.085478 49 41 19
-0.882962 -1.190341 5.087049 72 65 43
-0.886030 -1.115699 5.109326 61 70 43
-0.884978 -1.077664 5.113305 73 72 37
-0.884751 -1.041084 5.111999 139 145 74
-0.890969 -0.835034 5.149079 116 106 59
-0.893595 -0.697097 5.164529 49 53 36
-0.895616 -0.683194 5.170445 73 84 73
-0.911546 0.047548 5.275736 155 159 85
-0.911844 0.416203 5.286402 114 133 85
-0.885062 -1.001071 5.114653 41 52 31
-0.887191 -0.894769 5.126276 135 132 61
-0.885041 -0.867428 5.132021 117 105 85
-0.891930 -0.594435 5.173838 46 52 28
-0.896089 -0.544038 5.193609 67 95 74
-0.901235 -0.425329 5.218253 116 66 18
-0.900524 -0.389217 5.222799 141 122 70
-0.899727 -0.367055 5.216222 133 98 64
-0.902667 -0.220955 5.227236 142 124 75
-0.906288 -0.056525 5.251443 56 67 52
-0.907225 0.203428 5.262448 90 107 100
-0.911283 0.365372 5.294858 151 162 84
-0.887959 -0.732649 5.160747 139 149 63
-0.898558 -0.253617 5.230441 121 58 34
-0.902678 -0.090988 5.256849 74 79 44
-0.905612 0.159662 5.264941 66 63 64
-0.907279 0.258504 5.273161 149 161 81
-0.931105 0.666244 5.322966 74 83 79
-0.872918 -1.140211 5.088999 65 67 60
-0.877175 -1.018575 5.111108 48 52 40
-0.878926 -0.921896 5.133429 138 144 71
-0.882838 -0.751892 5.157158 85 82 37
-0.886343 -0.613080 5.177409 52 67 47
-0.890703 -0.500031 5.200747 58 74 53
-0.889810 -0.487485 5.202131 50 71 49
-0.895071 -0.390853 5.221393 122 92 50
-0.900550 -0.137725 5.260889 143 139 79
-0.904118 0.290134 5.277891 55 68 55
-0.899706 0.344479 5.265740 148 160 82
-0.907031 0.392780 5.300801 44 55 19
-0.902423 0.434101 5.274537 29 54 34
-0.869938 -1.166296 5.085750 99 86 78
-0.873576 -1.114322 5.107730 38 50 38
-0.873507 -1.100393 5.110526 46 58 49
-0.880944 -0.598931 5.175402 52 70 52
-0.890703 -0.316084 5.217354 122 60 39
-0.892428 -0.271931 5.231904 129 63 45
-0.892810 -0.199445 5.222794 125 87 44
-0.892191 -0.184813 5.220257 122 84 30
-0.898711 0.080236 5.272312 102 112 56
-0.899504 0.140860 5.265567 64 62 56
-0.916834 0.753726 5.266787 231 235 236
-0.867717 -1.052954 5.109703 116 124 72
-0.877182 -0.702094 5.157334 50 56 32
-0.879638 -0.686161 5.163514 67 72 58
-0.884045 -0.451832 5.200022 143 149 79
-0.887641 -0.359239 5.215739 145 114 62
-0.886807 -0.174726 5.217121 131 76 33
-0.893514 -0.123867 5.262849 121 94 39
-0.896517 0.062083 5.269293 51 59 17
-0.892697 0.222053 5.259685 118 127 106
-0.915931 0.704547 5.283819 90 121 104
-0.863615 -1.166817 5.084789 75 66 36
-0.869153 -1.002810 5.111609 80 83 62
-0.866723 -0.964845 5.114204 63 67 42
-0.871807 -0.794832 5.148238 96 90 76
-0.882488 -0.421289 5.214402 127 58 32
-0.884365 -0.239243 5.220477 124 59 38
-0.888202 -0.155655 5.243937 128 70 34
-0.891480 -0.094114 5.255388 83 89 51
-0.892404 0.232749 5.265222 81 87 66
-0.858639 -1.158478 5.085210 122 120 116
-0.861291 -1.127681 5.096898 35 42 42
-0.871272 -0.770811 5.149121 104 99 79
-0.876476 -0.505358 5.196751 101 107 75
-0.879535 -0.324086 5.210361 123 60 26
-0.881822 -0.201711 5.211787 128 64 36
-0.879858 -0.171460 5.216557 126 62 29
-0.886561 -0.074881 5.247344 95 116 88
-0.888585 0.097104 5.271191 70 91 68
-0.887713 0.122241 5.264713 69 63 42
-0.885433 0.198839 5.254275 105 109 100
-0.884486 0.350806 5.262074 152 158 88
-0.857075 -1.065704 5.105392 47 65 46
-0.866523 -0.843265 5.147434 114 115 86
-0.870346 -0.686915 5.160785 48 61 51
-0.872953 -0.484251 5.197646 119 131 83
-0.879432 -0.285063 5.228288 134 83 45
-0.885679 0.046375 5.269404 67 65 43
-0.882370 0.344775 5.258550 154 159 85
-0.887195 0.425741 5.285359 149 159 87
-0.907827 0.704576 5.284051 91 133 113
-0.858946 -1.129030 5.095237 27 40 33
-0.856847 -1.017357 5.105832 36 48 32
-0.857276 -0.953294 5.115215 52 57 33
-0.860877 -0.924855 5.137178 127 125 59
-0.871199 -0.437197 5.202158 133 105 37
-0.875285 -0.322192 5.214086 120 60 30
-0.875985 -0.227464 5.215986 124 61 36
-0.877516 -0.156437 5.246693 129 67 41
-0.881897 -0.127010 5.257262 130 61 35
-0.883312 -0.111897 5.257823 119 95 52
-0.875708 -0.030411 5.243791 145 161 82
-0.906545 0.688138 5.304076 45 54 49
-0.821145 0.830559 4.770868 231 236 239
-0.854448 -0.998577 5.107748 83 88 56
-0.861247 -0.821750 5.149572 76 83 78
-0.860325 -0.771914 5.145102 67 59 55
-0.864395 -0.614918 5.176916 137 148 76
-0.872119 -0.258312 5.229906 141 99 58
-0.878207 0.002999 5.268520 52 61 31
-0.878708 0.072266 5.271779 108 140 94
-0.896292 0.739818 5.256231 231 235 236
-0.848637 -1.199404 5.081039 141 148 78
-0.849541 -1.109799 5.102663 130 133 64
-0.850496 -1.043695 5.105714 45 54 27
-0.856180 -0.880485 5.135017 123 126 40
-0.856292 -0.863535 5.137849 92 98 51
-0.856774 -0.786748 5.145723 70 61 58
-0.864172 -0.457272 5.190877 121 87 40
-0.868553 -0.412182 5.210035 123 58 35
-0.871634 -0.301475 5.227782 145 113 81
-0.870665 -0.249576 5.226212 140 100 64
-0.865727 -0.192881 5.209231 130 67 39
-0.876409 0.161353 5.265305 76 83 42
-0.878176 0.262918 5.292389 71 75 38
-0.846633 -1.153364 5.085848 73 88 81
-0.849128 -0.975119 5.106891 117 127 82
-0.854412 -0.728924 5.156438 139 143 71
-0.857268 -0.665021 5.158420 46 51 34
-0.856323 -0.647048 5.164659 66 67 44
-0.858185 -0.595254 5.170783 142 151 75
-0.859109 -0.571227 5.174995 137 150 78
-0.861073 -0.511670 5.197901 54 63 43
-0.863289 -0.486608 5.198322 101 85 52
-0.862901 -0.335257 5.210804 119 58 27
-0.869267 -0.317146 5.217327 126 65 39
-0.864464 -0.213580 5.220057 124 74 35
-0.865466 -0.206909 5.218631 128 72 36
-0.868156 -0.149817 5.242550 133 70 38
-0.871583 -0.087422 5.246712 73 79 62
-0.872376 0.010136 5.269266 48 68 36
-0.877148 0.391957 5.291872 76 91 66
-0.890685 0.754640 5.262722 227 231 230
-0.842693 -0.985778 5.105696 71 85 53
-0.852484 -0.767850 5.144702 120 103 104
-0.855824 -0.588837 5.171152 139 149 64
-0.861034 -0.376999 5.216941 128 60 37
-0.865145 -0.325679 5.212028 117 59 27
-0.862758 -0.226412 5.219891 142 127 66
-0.862086 -0.192859 5.215350 128 74 43
-0.869920 0.045284 5.264442 59 69 46
-0.903302 0.465672 5.201837 101 88 81
-0.890234 0.715224 5.276912 186 201 185
-0.839556 -1.062473 5.099907 88 97 68
-0.840344 -1.044565 5.102558 54 69 46
-0.842134 -1.009414 5.102547 24 36 20
-0.847025 -0.748732 5.146447 102 97 49
-0.854780 -0.538994 5.185390 82 98 69
-0.855090 -0.438232 5.194192 140 117 65
-0.858182 -0.360963 5.212909 141 96 55
-0.866261 -0.118314 5.253516 149 119 85
-0.864626 0.064098 5.260858 84 103 76
-0.835907 -1.126180 5.091774 61 55 12
-0.837700 -1.105454 5.099744 60 53 9
-0.839530 -0.953586 5.112072 44 60 33
-0.844298 -0.840749 5.140856 73 91 65
-0.845382 -0.811463 5.145974 69 87 66
-0.858039 -0.287715 5.228125 116 70 43
-0.862919 0.179116 5.283618 139 143 91
-0.865478 0.249160 5.295239 91 87 76
-0.832547 -1.165060 5.080928 103 106 96
-0.834372 -1.088247 5.098999 136 141 72
-0.842070 -0.682389 5.153154 69 81 62
-0.840671 -0.670066 5.152182 69 84 75
-0.849543 -0.393307 5.206308 146 115 78
-0.854105 -0.267172 5.234118 138 117 72
-0.856395 -0.175693 5.235783 149 119 63
-0.858371 -0.083344 5.241730 83 98 68
-0.858025 -0.002010 5.256781 86 116 101
-0.928819 0.306173 5.739905 59 74 34
-0.878017 0.735535 5.263792 165 169 141
-0.878498 0.739785 5.261300 173 179 150
-0.830615 -1.043465 5.100759 49 61 41
-0.832662 -1.024944 5.102342 136 143 76
-0.841949 -0.615721 5.172101 142 153 77
-0.852797 -0.159103 5.239903 124 72 30
-0.852601 -0.097344 5.242650 141 150 77
-0.850953 -0.043547 5.238863 105 117 73
-0.853912 -0.023325 5.249650 45 60 29
-0.855454 0.048477 5.257934 46 58 39
-0.856655 0.205691 5.269411 81 83 42
-0.860470 0.431961 5.284933 85 90 45
-0.885599 0.678686 5.323270 49 66 60
-0.829214 -1.145309 5.085933 42 49 39
-0.833490 -0.756185 5.144511 71 68 57
-0.844052 -0.491104 5.201008 94 114 110
-0.848073 -0.215671 5.227258 142 152 74
-0.849685 -0.134720 5.248346 123 88 34
-0.852488 0.133254 5.263916 87 101 67
-0.823340 -1.197865 5.076180 142 143 77
-0.824025 -0.986948 5.101979 40 55 46
-0.829803 -0.930200 5.128617 42 46 14
-0.828717 -0.917721 5.131351 61 71 32
-0.837939 -0.531634 5.183142 64 91 74
-0.842391 -0.510792 5.205894 87 116 89
-0.848200 -0.034782 5.246863 94 114 94
-0.850992 0.048873 5.256574 49 62 40
-0.851899 0.158855 5.278317 107 121 107
-0.852612 0.168994 5.284966 96 110 92
-0.853571 0.184858 5.283802 130 141 96
-0.855301 0.392665 5.288355 146 163 82
-0.883070 0.459711 5.199618 68 60 42
-0.825996 -0.908038 5.131207 70 75 33
-0.828969 -0.637910 5.155548 142 150 77
-0.832937 -0.562085 5.174017 56 67 52
-0.838106 -0.471758 5.197209 124 114 77
-0.840399 -0.301071 5.223481 143 112 71
-0.840655 -0.243195 5.230028 117 79 35
-0.845437 0.077512 5.258920 84 99 76
-0.875696 0.626468 5.240348 75 84 81
-0.871427 0.710547 5.285060 97 126 102
-0.815250 -1.186927 5.075065 137 148 72
-0.815025 -1.166134 5.079003 85 86 65
-0.819565 -1.111499 5.094759 71 68 59
-0.823306 -0.940246 5.124000 71 82 50
-0.820348 -0.890120 5.128186 116 121 68
-0.822938 -0.860305 5.131446 67 75 55
-0.827242 -0.721323 5.154842 73 68 42
-0.829121 -0.624274 5.174867 143 149 82
-0.834015 -0.609103 5.190754 143 149 83
-0.843562 0.122402 5.262473 42 56 39
-0.847445 0.160959 5.277696 46 68 47
-0.863315 0.743665 5.261195 141 142 110
-0.814224 -1.196997 5.073619 139 145 78
-0.813492 -1.066823 5.089671 68 82 65
-0.819753 -0.805806 5.143883 100 96 54
-0.826400 -0.693832 5.162738 139 144 79
-0.825795 -0.667012 5.152780 130 144 76
-0.830106 -0.489263 5.204452 65 88 74
-0.830210 -0.446399 5.198358 119 76 27
-0.844041 0.155819 5.274037 68 93 79
-0.841129 0.199971 5.277157 53 64 32
-0.844842 0.233768 5.282479 150 162 85
-0.842738 0.264658 5.284308 66 58 33
-0.845231 0.423316 5.284523 86 88 71
-0.868781 0.607546 5.248310 72 62 50
-0.809499 -1.137207 5.084503 90 80 78
-0.812031 -0.971909 5.098554 122 134 68
-0.817524 -0.757740 5.144115 86 81 78
-0.823841 -0.553234 5.172418 60 71 51
-0.827560 -0.463659 5.199051 125 129 71
-0.827075 -0.368523 5.206296 139 122 69
-0.833603 -0.035164 5.245469 45 56 49
-0.840666 0.401320 5.286055 146 160 75
-0.805646 -1.090525 5.089218 44 41 19
-0.809704 -0.955420 5.103542 56 62 31
-0.813442 -0.927760 5.124977 69 88 69
-0.823965 -0.432127 5.202755 123 77 44
-0.823175 -0.409499 5.203353 124 58 35
-0.836679 0.181690 5.280214 108 127 93
-0.863006 0.615102 5.247965 103 59 43
-0.805950 -1.149180 5.080752 87 91 82
-0.806221 -1.038037 5.101057 138 142 69
-0.812098 -0.919823 5.125754 61 75 58
-0.812364 -0.860716 5.127112 88 98 66
-0.814534 -0.737785 5.148446 128 123 94
-0.822526 -0.597200 5.196788 143 149 76
-0.820057 -0.467637 5.197984 60 78 44
-0.821735 -0.413885 5.202965 123 62 24
-0.823816 -0.256045 5.225324 127 63 43
-0.824139 -0.147337 5.230679 150 157 80
-0.805820 -0.890267 5.123997 38 47 27
-0.811152 -0.755815 5.144692 122 111 105
-0.811081 -0.663180 5.163200 138 149 79
-0.810189 -0.648634 5.157248 143 150 72
-0.821927 -0.280641 5.221360 147 109 65
-0.823120 -0.219936 5.230615 144 120 76
-0.824421 -0.193338 5.241912 143 125 59
-0.823105 -0.173806 5.240632 126 109 55
-0.865600 0.577524 5.281687 97 113 94
-0.805209 -0.770162 5.147058 72 72 69
-0.820042 -0.020368 5.240872 80 95 75
-0.849192 0.713613 5.290080 119 134 119
-0.845140 0.753789 5.263789 142 140 110
-0.794007 -1.202637 5.070650 106 107 54
-0.809632 -0.525683 5.183434 137 149 72
-0.818560 -0.205526 5.243202 129 73 25
-0.820732 -0.077008 5.262742 151 159 82
-0.821965 -0.062219 5.258980 148 160 86
-0.818033 0.032054 5.252923 50 68 27
-0.791863 -1.127518 5.082288 111 112 85
-0.792857 -1.109702 5.086274 69 56 36
-0.796969 -0.907208 5.121155 57 68 52
-0.800900 -0.822050 5.136324 54 50 17
-0.811771 -0.330774 5.212053 122 59 28
-0.815056 -0.164234 5.236880 128 80 50
-0.818712 0.110016 5.257633 91 94 61
-0.816534 0.127958 5.252805 42 62 38
-0.850322 0.630843 5.266206 79 80 78
-0.787506 -1.057035 5.082022 138 146 72
-0.792888 -0.880155 5.118732 102 120 77
-0.793995 -0.870536 5.118976 50 62 45
-0.799411 -0.687222 5.163712 67 74 32
-0.804042 -0.613244 5.184822 48 56 19
-0.804696 -0.595795 5.190418 52 64 38
-0.804554 -0.579885 5.189886 46 53 21
-0.803844 -0.479498 5.193133 91 100 74
-0.804750 -0.408000 5.206597 144 119 63
-0.804103 -0.378888 5.197663 120 58 35
-0.812097 -0.193330 5.239823 124 61 31
-0.812127 -0.185544 5.239417 131 67 38
-0.808321 -0.148174 5.234595 146 153 81
-0.816145 -0.092233 5.266219 154 162 89
-0.812096 0.069914 5.253289 147 162 78
-0.817514 0.164085 5.276919 147 157 87
-0.813834 0.209964 5.272678 81 107 84
-0.814361 0.271503 5.272883 56 55 20
-0.813800 0.351026 5.263991 54 70 53
-0.854021 0.668180 5.300548 82 93 89
-0.783999 -1.185492 5.070548 93 93 56
-0.787390 -1.167562 5.074574 103 103 75
-0.790726 -0.996521 5.106773 56 58 37
-0.796883 -0.705456 5.152335 51 58 23
-0.796704 -0.667867 5.168047 77 84 41
-0.802828 -0.397103 5.202612 138 94 56
-0.800765 -0.368173 5.195829 121 57 36
-0.806998 -0.309469 5.218925 140 94 61
-0.805215 -0.252289 5.218538 129 68 42
-0.807305 0.045878 5.250432 46 59 34
-0.807068 0.062244 5.253387 146 160 81
-0.812865 0.193983 5.272205 115 123 81
-0.809954 0.288056 5.266870 137 149 89
-0.857692 0.503997 5.252095 86 117 91
-0.813245 0.544048 5.291743 75 95 52
-0.786759 -0.977373 5.105224 40 56 25
-0.797337 -0.585622 5.187523 82 102 87
-0.799368 -0.351904 5.198032 127 55 33
-0.803065 -0.332392 5.209802 118 56 34
-0.800319 -0.234890 5.216683 146 111 72
-0.805187 -0.163227 5.244133 128 95 57
-0.803856 -0.132405 5.241351 148 159 83
-0.805968 -0.114507 5.253097 145 155 82
-0.809317 0.143419 5.256314 143 155 83
-0.808261 0.296505 5.264751 63 74 21
-0.834720 0.751281 5.278807 134 136 107
-0.778012 -1.084617 5.085077 88 67 47
-0.782514 -0.965822 5.105090 53 65 56
-0.784875 -0.839040 5.120850 93 103 74
-0.786952 -0.808804 5.140398 117 109 79
-0.787599 -0.795738 5.142684 67 61 56
-0.788767 -0.751439 5.143792 74 78 63
-0.788851 -0.720276 5.147153 95 99 55
-0.790007 -0.656649 5.165410 71 79 46
-0.790546 -0.540936 5.177866 137 149 65
-0.794573 -0.465469 5.192312 83 95 74
-0.797457 -0.444100 5.196809 143 150 82
-0.805341 -0.107932 5.259662 152 158 83
-0.799807 0.026200 5.243586 86 96 69
-0.807575 0.430746 5.273772 39 46 18
-0.855943 0.589302 5.291303 100 84 51
-0.838230 0.608548 5.264044 47 55 49
-0.837177 0.622045 5.260258 41 43 39
-0.836864 0.718019 5.298357 157 171 162
-0.764542 -1.342586 5.102165 77 116 84
-0.775458 -1.159659 5.073595 50 52 40
-0.782494 -1.025905 5.110518 46 55 23
-0.780211 -0.936981 5.112567 137 143 69
-0.784893 -0.783909 5.145998 53 46 44
-0.790623 -0.611167 5.179518 47 61 48
-0.790174 -0.365792 5.192977 123 55 34
-0.794451 -0.280138 5.209026 141 112 81
-0.793754 -0.262706 5.212616 133 97 67
-0.798509 -0.131402 5.244886 148 159 81
-0.800344 -0.030516 5.242216 75 91 71
-0.799041 0.083456 5.251599 145 158 82
-0.800332 0.212011 5.271359 67 89 54
-0.803312 0.379360 5.285371 151 163 79
-0.772177 -1.195995 5.068820 131 128 75
-0.777432 -0.903960 5.115718 54 61 43
-0.782922 -0.642403 5.161715 104 110 79
-0.788573 -0.599370 5.182008 93 104 90
-0.786597 -0.554070 5.181211 66 72 34
-0.791336 -0.414376 5.204789 121 83 29
-0.796161 0.046529 5.247779 59 84 52
-0.799866 0.248327 5.274096 148 161 80
-0.769036 -1.140027 5.075095 63 64 50
-0.774632 -1.001431 5.110733 61 83 60
-0.781011 -0.695518 5.153420 97 112 94
-0.781653 -0.676619 5.161655 88 106 72
-0.783136 -0.494438 5.187088 117 121 87
-0.785559 -0.429815 5.198914 144 152 83
-0.782645 -0.367257 5.189299 122 55 33
-0.790512 -0.223168 5.226299 150 111 69
-0.790976 -0.142111 5.248701 148 161 80
-0.793166 0.018369 5.239612 131 140 78
-0.788303 0.154564 5.244267 145 159 84
-0.795475 0.373779 5.283032 146 160 71
-0.765148 -1.120539 5.079926 139 142 78
-0.770465 -0.923061 5.111214 136 144 79
-0.782230 -0.386813 5.191509 125 61 36
-0.779676 -0.359682 5.192882 126 59 36
-0.788111 -0.197912 5.234202 128 56 31
-0.789065 -0.063493 5.250753 98 116 90
-0.788602 0.004607 5.236872 68 84 53
-0.788874 0.122457 5.250188 61 82 60
-0.791628 0.182099 5.268867 86 98 83
-0.792634 0.312010 5.260937 104 116 95
-0.789859 0.350958 5.252304 143 160 81
-0.765831 -1.518927 5.401257 168 188 176
-0.767985 -0.931892 5.109040 138 150 72
-0.773089 -0.728039 5.144362 75 81 49
-0.775461 -0.548425 5.177031 62 67 52
-0.777838 -0.514090 5.178152 74 79 66
-0.781267 -0.347994 5.199684 121 61 32
-0.785854 0.074880 5.256415 151 164 85
-0.788212 0.361129 5.254624 153 162 84
-0.769312 -0.736481 5.143109 121 130 77
-0.774135 -0.617655 5.164969 107 121 93
-0.773234 -0.472585 5.182128 68 93 72
-0.780365 -0.293812 5.215619 125 68 33
-0.782826 -0.185377 5.241131 127 64 32
-0.785338 -0.084666 5.246474 61 65 30
-0.780904 0.040405 5.240489 69 90 71
-0.784804 0.401186 5.274206 151 163 80
-0.755727 -1.194095 5.066223 109 104 56
-0.755665 -1.138556 5.074531 56 58 35
-0.754880 -1.100265 5.081406 136 143 69
-0.759175 -1.046582 5.089414 84 87 42
-0.760106 -0.974417 5.108557 96 114 70
-0.764330 -0.743610 5.140230 75 80 56
-0.770736 -0.643803 5.159057 56 63 59
-0.771639 -0.567249 5.179999 52 58 40
-0.779727 -0.342788 5.207859 120 60 28
-0.784367 0.267733 5.274946 150 161 80
-0.785222 0.295343 5.262818 57 70 53
-0.781870 0.430211 5.274526 151 165 84
-0.847341 0.523356 5.323654 90 95 58
-0.820355 0.610866 5.282159 23 45 42
-0.826898 0.718634 5.313146 93 113 95
-0.752894 -1.147138 5.073242 125 123 109
-0.758792 -0.882471 5.113296 144 151 86
-0.762957 -0.780419 5.141127 91 87 64
-0.762982 -0.769785 5.141297 71 69 61
-0.768334 -0.460702 5.185321 134 146 80
-0.770489 -0.404135 5.195394 126 77 41
-0.768034 -0.376583 5.186143 123 63 35
-0.775729 -0.310980 5.226360 144 117 82
-0.778656 -0.169550 5.246948 135 112 60
-0.776289 -0.050066 5.244009 54 78 45
-0.775017 0.003772 5.237556 65 93 77
-0.777606 0.070932 5.252125 149 162 83
-0.779566 0.241067 5.273293 48 46 5
-0.779585 0.385196 5.282723 152 163 87
-0.779310 0.396206 5.277158 150 162 78
-0.823140 0.585778 5.301066 115 92 66
-0.817523 0.623915 5.278656 25 48 49
-0.820437 0.659778 5.320333 23 63 58
-0.819317 0.743625 5.306455 110 107 90
-0.747426 -1.287836 5.061644 48 66 44
-0.750006 -1.174653 5.068389 74 71 48
-0.751521 -1.065634 5.088909 137 143 74
-0.754794 -0.916182 5.108251 140 149 70
-0.760670 -0.706972 5.141625 91 106 65
-0.761013 -0.626249 5.157498 56 66 53
-0.765060 -0.593259 5.172523 138 148 84
-0.763603 -0.485293 5.179296 60 84 67
-0.775385 -0.091164 5.239895 68 76 45
-0.770160 0.013349 5.238920 69 88 68
-0.771450 0.025222 5.236961 39 57 43
-0.776199 0.076430 5.260307 149 162 83
-0.773076 0.167314 5.255430 142 155 81
-0.775708 0.313621 5.256090 45 64 38
-0.753522 -0.855621 5.122087 135 144 65
-0.756038 -0.818874 5.128841 63 57 20
-0.758378 -0.727715 5.141678 68 78 47
-0.763783 -0.445762 5.188463 117 85 30
-0.769199 -0.272568 5.212543 125 83 39
-0.764311 -0.248410 5.206111 122 70 32
-0.769424 -0.065913 5.238671 99 117 92
-0.742335 -1.287321 5.061040 71 84 72
-0.742911 -1.268183 5.064023 78 89 49
-0.742063 -1.155553 5.072841 80 72 72
-0.747227 -0.963880 5.108666 62 83 47
-0.747267 -0.945092 5.106070 66 74 37
-0.747651 -0.899456 5.112912 141 149 78
-0.750806 -0.765266 5.139170 78 78 56
-0.756275 -0.663960 5.157448 141 151 80
-0.760145 -0.601807 5.164425 140 145 82
-0.760116 -0.407751 5.192578 138 124 76
-0.763725 -0.285222 5.211243 144 130 89
-0.764919 -0.238832 5.223100 137 93 70
-0.765077 -0.230322 5.232110 130 80 57
-0.766569 -0.215465 5.235988 129 76 42
-0.770281 0.403326 5.277658 151 165 78
-0.813713 0.759356 5.317708 98 95 76
-0.740107 -1.092639 5.080279 61 58 17
-0.744324 -1.028857 5.093731 94 108 73
-0.753750 -0.473346 5.177432 135 139 84
-0.755832 -0.458297 5.184780 116 79 22
-0.755050 -0.418850 5.186299 128 90 56
-0.761329 -0.293750 5.214698 117 90 48
-0.764025 -0.156329 5.240231 61 70 34
-0.810006 0.735176 5.326807 86 83 58
-0.735293 -1.246354 5.064427 42 63 35
-0.738590 -1.121897 5.074121 65 65 34
-0.738597 -1.062315 5.087229 134 143 69
-0.745910 -0.742467 5.138457 68 66 55
-0.749133 -0.732718 5.139709 114 123 80
-0.750551 -0.601593 5.160823 144 149 76
-0.748658 -0.560289 5.171531 52 69 42
-0.756046 -0.270672 5.206254 146 142 88
-0.759904 -0.139210 5.238130 51 62 27
-0.761344 0.251789 5.269484 60 58 48
-0.732184 -1.224262 5.068444 56 64 49
-0.736363 -1.046585 5.085544 60 62 45
-0.742412 -0.856592 5.123849 140 148 75
-0.757588 -0.186522 5.235559 139 139 80
-0.759988 0.063299 5.262020 148 160 83
-0.759692 0.302262 5.263403 39 54 24
-0.822966 0.516264 5.308806 115 127 91
-0.729190 -1.259919 5.061099 36 48 35
-0.732293 -1.185610 5.063690 127 122 73
-0.741133 -0.524866 5.159927 140 150 78
-0.743684 -0.381296 5.183652 146 92 63
-0.750436 -0.337785 5.204103 122 59 31
-0.752218 -0.320438 5.220485 128 70 46
-0.754488 -0.177785 5.236694 122 126 69
-0.755374 -0.094574 5.232820 56 61 36
-0.752344 -0.031787 5.236708 143 155 78
-0.757129 0.056914 5.259230 152 164 83
-0.758818 0.376182 5.286430 39 53 18
-0.806655 0.670476 5.322346 76 95 96
-0.804641 0.779113 5.330710 88 87 64
-0.730415 -0.983217 5.104848 134 141 66
-0.734308 -0.880104 5.123641 140 147 81
-0.734077 -0.762359 5.133930 73 74 60
-0.741095 -0.492054 5.176191 140 150 76
-0.743537 -0.346617 5.192024 127 61 36
-0.745569 -0.240325 5.213116 142 151 84
-0.751909 -0.077347 5.230093 81 96 82
-0.747059 -0.052585 5.224854 143 155 75
-0.748577 -0.044397 5.226843 146 156 82
-0.748907 -0.020023 5.242695 148 161 88
-0.753173 0.082483 5.256179 48 49 14
-0.752567 0.123107 5.250438 81 84 52
-0.751653 0.150596 5.252477 70 64 32
-0.753598 0.341563 5.260645 76 95 55
-0.798860 0.694795 5.363375 25 39 79
-0.734366 -0.709426 5.136117 38 51 33
-0.735200 -0.692405 5.137760 72 78 64
-0.734264 -0.623087 5.151577 59 72 45
-0.739169 -0.594870 5.161480 139 150 80
-0.741454 -0.465732 5.187135 120 73 15
-0.739496 -0.406688 5.196625 125 64 32
-0.745629 -0.156339 5.231838 44 66 39
-0.744740 -0.145424 5.228584 56 72 57
-0.751700 0.281842 5.273432 153 163 89
-0.720840 -1.279759 5.060119 40 46 35
-0.721161 -1.197652 5.065358 95 89 54
-0.721960 -1.180250 5.067754 134 134 70
-0.722138 -1.114030 5.073970 71 71 47
-0.729506 -0.809820 5.124015 80 86 71
-0.742230 -0.273573 5.211648 120 83 45
-0.748760 0.377780 5.284049 60 81 69
-0.811454 0.513559 5.314999 98 109 83
-0.791330 0.612676 5.306508 28 41 65
-0.718031 -1.124860 5.073130 111 110 106
-0.722318 -1.015331 5.091243 85 98 80
-0.726938 -0.636115 5.151562 50 60 37
-0.737078 -0.246035 5.209748 140 150 78
-0.738628 -0.051813 5.222813 143 156 80
-0.742992 -0.001558 5.246655 75 78 59
-0.742920 0.033006 5.252997 149 158 81
-0.742765 0.052250 5.256450 150 165 86
-0.745249 0.312561 5.267797 78 92 81
-0.720423 -0.949875 5.102954 27 39 31
-0.723036 -0.827050 5.119666 108 112 73
-0.722701 -0.753192 5.130992 130 133 121
-0.723299 -0.745491 5.132633 61 62 49
-0.731255 -0.436091 5.187681 121 56 26
-0.732174 -0.411245 5.197115 119 60 36
-0.737197 -0.163828 5.228811 106 132 88
-0.737881 0.098386 5.247650 130 129 93
-0.711477 -1.237715 5.059686 56 59 36
-0.712423 -1.150049 5.072675 81 79 60
-0.714074 -1.087632 5.077876 110 111 89
-0.716184 -0.994964 5.095840 58 52 17
-0.717474 -0.771614 5.126471 99 103 76
-0.721242 -0.618666 5.148828 75 85 67
-0.723402 -0.577916 5.160952 142 148 73
-0.726515 -0.356275 5.199862 126 60 39
-0.733656 -0.187496 5.229362 69 72 44
-0.737451 0.003765 5.250115 82 90 76
-0.788049 0.722989 5.352028 114 122 113
-0.709660 -1.159085 5.072581 83 86 58
-0.708020 -1.112337 5.071410 64 55 54
-0.713492 -0.968667 5.100089 114 106 71
-0.713135 -0.942031 5.100367 104 110 83
-0.713635 -0.895941 5.105974 76 69 44
-0.725877 -0.466380 5.193129 119 63 32
