ply
format ascii 1.0
element vertex 1261
property float x
property float y
property float z
property uchar red
property uchar green
property uchar blue
end_header
-1.956442 -1.446223 5.542175 177 195 167
-1.961746 -1.427743 5.558268 99 89 67
-2.009847 -1.242256 5.746129 124 95 76
-1.954769 -1.074345 5.582481 9 5 6
-1.852587 -0.757890 5.282633 33 47 33
-1.868184 0.185680 5.346688 79 56 35
-1.842219 0.474953 5.277791 113 46 43
-1.839553 0.555504 5.267607 95 64 31
-1.837722 0.585900 5.255219 140 109 55
-1.838328 0.932532 5.270120 145 158 141
-2.068422 -2.015386 5.904421 211 221 222
-1.948552 -1.542786 5.530657 195 203 193
-2.014771 -1.295361 5.761029 53 53 52
-2.011711 -1.265674 5.755531 32 32 27
-2.005860 -1.227484 5.739987 63 28 18
-1.951340 -1.082231 5.578509 13 1 6
-1.955024 -1.063965 5.586116 28 9 11
-1.862374 0.055687 5.335330 26 21 17
-1.863334 0.070788 5.338487 38 34 34
-1.852121 0.497332 5.303433 81 37 32
-1.827617 0.603878 5.239142 118 86 51
-2.004601 -1.536175 5.660769 97 105 115
-1.967200 -1.384221 5.608243 150 128 87
-1.838679 -0.719803 5.273425 104 117 62
-1.844358 -0.690554 5.289320 22 40 4
-1.859891 -0.470220 5.339746 140 123 63
-1.852749 -0.260535 5.311226 17 34 3
-1.854376 -0.241460 5.322911 28 36 13
-1.858348 -0.193263 5.324453 11 23 23
-1.870689 0.005997 5.362337 29 28 24
-1.862131 0.207955 5.341597 86 62 30
-1.866030 0.316683 5.361327 49 57 36
-1.942707 -1.569469 5.532708 86 101 68
-1.997546 -1.565621 5.653787 210 214 211
-1.975548 -1.339134 5.663393 60 35 12
-1.990312 -1.315086 5.709806 47 32 12
-1.838022 -0.706080 5.279905 76 88 40
-1.842123 -0.671362 5.290397 33 48 24
-1.856664 -0.461312 5.335671 140 103 58
-1.854883 -0.435463 5.327750 112 62 22
-1.860169 -0.390562 5.345543 91 99 74
-1.834097 0.549964 5.273627 122 92 56
-1.815217 0.649508 5.231383 131 110 63
-1.953220 -1.047686 5.612303 21 0 3
-1.849217 -0.575975 5.321189 66 66 30
-1.849678 -0.562535 5.321630 95 96 46
-1.846474 -0.487766 5.311529 142 145 71
-1.855899 -0.413687 5.333861 98 56 22
-1.849666 -0.280121 5.321328 55 72 53
-1.867437 0.108909 5.372887 35 25 23
-1.993866 -1.273308 5.748116 49 47 32
-1.973535 -1.172379 5.694221 134 56 62
-1.848670 -0.599580 5.326509 38 47 27
-1.853849 0.050468 5.350398 18 27 16
-1.853932 0.229421 5.350105 72 48 27
-1.858301 0.259054 5.364397 47 33 22
-1.858402 0.292369 5.363101 36 34 10
-1.815403 0.650849 5.250230 129 108 62
-1.807523 0.663827 5.221888 131 114 75
-1.813509 0.964052 5.243950 153 167 145
-1.967858 -1.335232 5.671281 73 44 33
-1.844994 -0.507023 5.329978 136 143 58
-1.847266 -0.361399 5.340608 78 70 33
-1.842427 -0.180358 5.317994 38 50 52
-1.857044 0.279599 5.364822 46 41 15
-1.850822 0.341412 5.351770 46 50 21
-1.830039 0.532068 5.290729 128 105 78
-1.940338 -1.578234 5.564147 201 210 199
-1.990169 -1.533558 5.671185 94 109 82
-1.973130 -1.318956 5.707798 57 35 18
-1.988146 -1.292498 5.746185 38 24 16
-1.981783 -1.230140 5.738387 58 17 20
-1.843591 -0.379744 5.340665 135 98 53
-1.845759 -0.370089 5.342118 101 60 18
-1.836563 -0.224678 5.315995 55 68 46
-1.838742 -0.195638 5.316521 27 45 46
-1.844133 -0.024387 5.342245 34 41 37
-1.851492 0.086024 5.361829 34 31 23
-1.847944 0.361463 5.353512 75 79 56
-1.844382 0.407248 5.347891 73 70 55
-1.808994 0.682296 5.244846 135 119 70
-1.989169 -1.569761 5.676501 104 115 118
-1.969223 -1.325570 5.696708 50 25 12
-1.821002 -0.709179 5.275932 35 51 27
-1.823400 -0.690370 5.282704 49 64 42
-1.846131 0.004664 5.359635 39 44 55
-1.848052 0.028933 5.356647 8 15 15
-1.846547 0.051172 5.352665 14 21 11
-1.851109 0.150093 5.361430 26 15 11
-1.844614 0.173697 5.353055 36 18 18
-1.845064 0.373880 5.354169 45 44 26
-1.842927 0.384595 5.353908 74 70 50
-1.841249 0.396394 5.350729 64 56 39
-1.841077 0.442408 5.339109 93 24 29
-1.831807 0.491767 5.308571 85 34 38
-1.940740 -1.608774 5.588309 102 115 88
-1.978432 -1.591724 5.662652 219 228 232
-1.938555 -1.412856 5.591381 137 118 81
-1.825279 -0.786479 5.294969 30 43 2
-1.833605 -0.610341 5.320337 63 74 68
-1.833456 -0.537675 5.319728 37 39 20
-1.835980 -0.511407 5.325065 137 142 59
-1.848441 0.125394 5.367277 32 33 27
-1.844225 0.303843 5.360332 72 58 41
-1.847701 0.462539 5.374045 89 34 41
-1.820145 0.548035 5.284522 86 64 26
-1.825791 0.716479 5.304088 107 86 48
-1.810352 0.931922 5.267281 137 152 131
-1.931038 -1.575331 5.568204 117 123 105
-1.936282 -1.400458 5.595449 133 115 79
-1.939188 -1.385437 5.604746 125 112 72
-1.817425 -0.802351 5.285761 57 73 44
-1.832780 -0.498873 5.333902 135 142 64
-1.834661 -0.431502 5.334805 130 141 54
-1.836117 -0.336636 5.341061 72 63 45
-1.834831 0.408475 5.345599 100 80 59
-1.814101 0.565107 5.282882 113 91 45
-1.806243 0.650893 5.265372 120 99 61
-1.795766 0.662279 5.235381 117 92 49
-1.934032 -1.437310 5.585659 56 71 45
-1.865338 -0.896151 5.405716 145 162 94
-1.823066 -0.632542 5.310459 17 30 21
-1.831221 -0.295004 5.330045 80 54 29
-1.824726 -0.198197 5.312063 26 36 37
-1.837370 0.029610 5.355224 39 57 51
-1.836112 0.208821 5.353112 36 25 23
-1.820456 0.527033 5.302206 91 75 56
-1.856059 0.780370 5.414678 75 79 56
-1.830906 -0.498211 5.334556 133 141 63
-1.829939 -0.459438 5.346050 136 143 66
-1.840282 0.109669 5.368276 22 14 13
-1.836428 0.261137 5.364492 18 12 8
-1.814617 0.697380 5.300903 101 82 40
-1.847324 0.789770 5.402528 86 90 75
-1.830938 0.842445 5.358841 129 114 68
-1.950691 -1.725193 5.654135 89 106 80
-1.925327 -1.395406 5.590666 133 116 73
-1.918935 -1.352963 5.572545 149 130 91
-1.967518 -1.242397 5.745541 60 10 22
-1.856554 -0.880466 5.404581 114 135 88
-1.809405 -0.794894 5.285738 53 71 37
-1.818266 -0.648335 5.307241 31 40 25
-1.821546 -0.243820 5.328714 80 96 65
-1.820352 -0.162945 5.325711 12 29 51
-1.822468 -0.059860 5.331226 45 63 70
-1.826548 0.067397 5.344879 46 47 41
-1.830202 0.194536 5.355106 48 52 40
-1.830078 0.336419 5.353236 74 55 37
-1.821236 0.512327 5.321697 62 39 34
-1.788692 0.672215 5.239733 97 73 42
-1.792056 0.864846 5.259749 113 96 62
-1.933511 -1.580815 5.610402 81 93 110
-1.925412 -1.381165 5.599494 143 125 85
-1.815116 -0.594915 5.314808 39 42 36
-1.820398 -0.397014 5.330509 67 89 62
-1.814893 -0.154572 5.321151 24 38 60
-1.828987 0.095994 5.366858 40 41 36
-1.829093 0.198030 5.357122 30 35 25
-1.836212 0.237818 5.379445 42 37 30
-1.833290 0.244479 5.373886 30 24 20
-1.815525 0.431334 5.329980 53 18 13
-1.802793 0.612287 5.290871 123 104 59
-1.839735 0.763196 5.388770 60 50 25
-1.832817 0.813726 5.383231 78 83 60
-1.822326 0.848846 5.348521 112 96 51
-1.799470 -0.810234 5.277274 75 89 51
-1.809876 -0.615054 5.308877 24 29 27
-1.814591 -0.191385 5.324528 73 94 85
-1.815917 -0.137109 5.327169 23 44 45
-1.820348 0.023259 5.349052 0 13 12
-1.879651 -1.592723 5.442956 88 104 71
-1.927400 -1.550935 5.614012 206 212 202
-1.920612 -1.471442 5.598902 88 102 78
-1.809618 -0.584138 5.311244 79 84 75
-1.807973 -0.562510 5.310729 67 71 56
-1.815423 -0.221515 5.341857 97 55 16
-1.812971 -0.048360 5.330538 19 34 30
-1.814161 -0.027381 5.332813 38 46 53
-1.824458 0.116829 5.364193 46 48 39
-1.821199 0.404288 5.365005 80 45 27
-1.809717 0.540626 5.320271 40 30 4
-1.905813 -1.344444 5.570326 137 113 75
-1.952826 -1.310120 5.740545 53 24 11
-1.918657 -1.198657 5.669219 133 27 49
-1.808086 -0.379096 5.327202 127 141 70
-1.808524 -0.344287 5.331549 113 114 70
-1.809268 -0.163848 5.327688 85 101 98
-1.813344 -0.059282 5.334480 51 85 83
-1.815061 0.002622 5.348932 34 40 51
-1.814663 0.047519 5.344151 13 25 19
-1.819821 0.201520 5.362873 34 37 30
-1.817298 0.378784 5.360426 50 32 16
-1.829917 0.736412 5.389018 57 38 5
-1.785469 -0.718102 5.268716 97 97 24
-1.810852 -0.489413 5.338590 21 35 5
-1.812011 -0.471448 5.343263 37 50 12
-1.812271 -0.254508 5.349159 129 108 61
-1.814343 -0.210791 5.348577 107 63 24
-1.817103 0.152089 5.361974 44 45 41
-1.823150 0.279797 5.380789 44 50 37
-1.815402 0.370332 5.357040 37 30 21
-1.920272 -1.577047 5.622715 85 98 72
-1.915321 -1.478790 5.611749 198 203 198
-1.907212 -1.389054 5.598886 122 101 67
-1.937261 -1.197591 5.723855 139 56 67
-1.806863 -0.461700 5.341552 42 53 18
-1.809955 -0.279227 5.348140 59 72 49
-1.808771 -0.231850 5.346943 136 109 58
-1.807444 0.025354 5.343779 45 66 68
-1.805274 0.425165 5.338020 38 24 20
-1.780735 0.651980 5.267928 60 36 14
-1.905668 -1.433291 5.596699 97 109 115
-1.906741 -1.405557 5.597463 87 86 69
-1.935637 -1.175761 5.726775 117 46 44
-1.782931 -0.764319 5.277256 73 78 41
-1.787807 -0.651835 5.293720 79 61 51
-1.791211 -0.633771 5.299246 18 19 11
-1.800465 -0.418453 5.323577 66 84 66
-1.797084 -0.402426 5.320185 51 78 46
-1.805985 -0.049415 5.348868 24 41 36
-1.802376 0.045177 5.342403 55 77 68
-1.807734 0.123152 5.356383 41 27 19
-1.816623 0.267234 5.382532 21 23 17
-1.816731 0.289712 5.381630 34 37 25
-1.814994 0.389598 5.376373 22 12 8
-1.822620 0.533060 5.408194 33 21 6
-1.766736 0.671727 5.241536 57 39 9
-1.821750 0.737685 5.389644 63 38 7
-1.803938 0.842351 5.354184 123 106 63
-1.797775 -0.472565 5.337772 36 55 45
-1.797569 0.064100 5.335879 49 48 48
-1.808305 0.413884 5.365482 51 39 24
-1.930152 -1.762126 5.681164 199 211 200
-1.915672 -1.585604 5.643126 209 213 203
-1.912808 -1.511102 5.633952 92 106 82
-1.904934 -1.468080 5.611529 216 223 222
-1.938675 -1.243046 5.760005 130 41 59
-1.824785 -0.862828 5.401057 81 73 10
-1.774440 -0.747117 5.270334 31 41 31
-1.773335 -0.698478 5.268722 97 99 22
-1.784191 -0.633536 5.297143 46 47 38
-1.783587 -0.599491 5.297695 96 77 71
-1.786809 -0.576242 5.301927 28 28 23
-1.788641 -0.494497 5.311103 47 52 33
-1.805513 -0.187641 5.364555 140 108 57
-1.800753 0.183040 5.354749 28 15 10
-1.830441 0.491215 5.448510 25 12 8
-1.815163 0.546714 5.398056 41 27 14
-1.776633 0.612914 5.285111 77 52 29
-1.811033 0.723414 5.375548 51 31 13
-1.818299 0.775809 5.403069 77 55 17
-1.785291 0.888140 5.316893 126 113 65
-1.916396 -1.550548 5.650391 109 123 132
-1.770695 -0.683049 5.272707 93 86 33
-1.773160 -0.671291 5.275683 72 69 55
-1.781740 -0.550435 5.302889 43 33 8
-1.793667 -0.479547 5.336272 52 68 53
-1.790338 -0.446569 5.335741 23 37 8
-1.795377 0.045546 5.348166 25 38 28
-1.796953 0.093550 5.351725 43 46 41
-1.798756 0.222071 5.359200 28 27 19
-1.806359 0.248829 5.377728 43 41 37
-1.806577 0.354592 5.381857 41 40 32
-1.811378 0.450737 5.398087 24 16 10
-1.813895 0.525268 5.409281 21 9 7
-1.795454 0.595982 5.346241 106 78 37
-1.764684 0.666483 5.259095 54 33 15
-1.808537 0.758736 5.385899 69 46 15
-1.769192 -0.780115 5.269341 38 47 26
-1.777059 -0.583384 5.296985 87 72 59
-1.779838 -0.361308 5.315188 103 113 66
-1.788581 -0.331115 5.330806 29 42 33
-1.795230 0.022237 5.362680 17 42 45
-1.789123 0.076674 5.335537 78 38 25
-1.791896 0.106963 5.350865 49 58 52
-1.792425 0.115110 5.351193 54 64 59
-1.792229 0.119522 5.350573 55 52 49
-1.793432 0.181380 5.352074 45 28 24
-1.802765 0.794223 5.385573 79 55 4
-1.849557 -1.550682 5.437993 120 138 118
-1.908834 -1.574801 5.653606 215 221 220
-1.887894 -1.328395 5.627250 128 104 74
-1.763462 -0.796780 5.262587 76 70 16
-1.781720 -0.465482 5.330177 80 95 54
-1.787242 -0.268128 5.344427 49 59 43
-1.788100 -0.248932 5.346528 36 50 21
-1.793249 0.222868 5.355225 19 17 6
-1.797290 0.325161 5.375090 64 59 28
-1.803431 0.405682 5.394051 20 11 9
-1.803108 0.561172 5.394737 116 89 41
-1.773006 0.622411 5.295103 68 41 11
-1.805950 0.775877 5.397813 72 43 11
-1.901621 -1.475973 5.641944 108 120 135
-1.895288 -1.435559 5.620903 113 127 101
-1.872825 -1.358926 5.593359 120 98 69
-1.767794 -0.655775 5.282179 47 42 16
-1.776398 -0.405461 5.312091 55 82 56
-1.775469 -0.386196 5.312741 68 82 35
-1.775329 -0.369756 5.313126 76 85 40
-1.786791 -0.016528 5.352727 72 94 88
-1.790890 0.045024 5.358007 28 39 31
-1.787708 0.241284 5.364978 42 24 14
-1.794405 0.286881 5.376273 41 54 45
-1.795504 0.328091 5.375122 32 28 6
-1.799687 0.344143 5.387168 40 41 28
-1.761620 0.696056 5.275284 73 50 17
-1.756639 -0.755369 5.263471 71 84 31
-1.756098 -0.736375 5.263214 86 91 16
-1.776121 -0.445203 5.331171 40 51 35
-1.787955 -0.235199 5.356771 124 133 68
-1.785503 -0.197463 5.355429 74 92 46
-1.782125 0.152065 5.347153 44 43 33
-1.791287 0.372221 5.378157 57 57 38
-1.769736 0.645372 5.308850 98 77 42
-1.789553 0.810952 5.371748 59 50 6
-1.776357 0.845118 5.342727 132 112 69
-1.772657 0.894762 5.312314 113 104 57
-1.903941 -1.547385 5.665652 100 117 90
-1.868256 -1.356372 5.591844 124 100 75
-1.872679 -1.342935 5.607083 129 108 63
-1.754502 -0.720394 5.265569 74 73 12
-1.756369 -0.671237 5.269605 98 95 42
-1.765401 -0.622088 5.299024 50 50 32
-1.765129 -0.557123 5.302402 29 25 20
-1.773701 -0.452566 5.327533 36 46 36
-1.773081 -0.339651 5.323535 26 35 27
-1.784026 -0.211457 5.354835 64 76 36
-1.779062 -0.059036 5.344699 60 40 17
-1.776674 0.104210 5.343802 33 29 21
-1.778284 0.188848 5.345707 56 61 54
-1.785221 0.309740 5.367388 24 30 14
-1.791826 0.739039 5.391131 90 61 23
-1.789832 0.776616 5.392378 77 52 16
-1.891339 -1.443171 5.640287 213 219 210
-1.747620 -0.771754 5.257333 38 57 36
-1.762571 -0.563615 5.301451 55 50 39
-1.775074 -0.024284 5.347307 79 54 26
-1.773860 0.218343 5.344841 34 32 24
-1.781430 0.263813 5.366252 20 19 12
-1.787590 0.392969 5.386814 59 56 26
-1.808216 0.495386 5.444128 29 20 14
-1.777035 0.607634 5.348187 92 73 41
-1.859070 -1.387705 5.580613 129 134 148
-1.804216 -0.876831 5.412174 10 23 6
-1.739510 -0.799487 5.243506 9 20 8
-1.746494 -0.688810 5.265033 32 42 32
-1.765613 -0.420728 5.316690 107 112 44
-1.768657 -0.250429 5.338383 31 51 23
-1.771555 0.113453 5.341772 68 84 79
-1.771075 0.122978 5.341498 26 39 27
-1.771163 0.195933 5.343011 34 51 35
-1.779677 0.291763 5.368428 57 68 50
-1.776935 0.314774 5.362071 68 74 41
-1.794254 0.514943 5.415817 29 23 7
-1.783272 0.578637 5.376201 99 79 41
-1.760118 0.653308 5.308461 75 51 9
-1.783918 0.772408 5.391061 59 32 0
-1.769321 0.829587 5.350447 129 111 70
-1.898816 -1.555995 5.684169 209 214 205
-1.898806 -1.520413 5.685178 53 74 79
-1.893824 -1.478862 5.665139 82 100 75
-1.864474 -1.305377 5.617214 138 117 74
-1.744635 -0.697521 5.263320 65 67 29
-1.756793 -0.586799 5.298708 42 39 20
-1.762754 -0.457928 5.323361 22 34 12
-1.756665 -0.365521 5.309061 42 58 29
-1.761717 -0.301012 5.322036 47 60 24
-1.772240 0.245773 5.361890 41 39 32
-1.779258 0.365422 5.379879 22 29 14
-1.787787 0.438043 5.414076 57 40 18
-1.739888 -0.676962 5.263737 35 49 29
-1.759857 -0.327477 5.327767 52 64 43
-1.759163 -0.324627 5.325633 23 35 19
-1.768536 -0.181128 5.349540 61 79 54
-1.772938 0.011786 5.367716 82 64 42
-1.770758 0.067625 5.361881 75 85 71
-1.769668 0.264998 5.359550 54 66 60
-1.851788 -1.363756 5.595701 223 229 217
-1.728088 -0.799535 5.238413 6 19 11
-1.734160 -0.743898 5.257156 8 23 7
-1.738850 -0.663725 5.264307 79 78 32
-1.747988 -0.505114 5.295571 40 50 7
-1.754894 -0.445007 5.323108 31 45 23
-1.759006 -0.286155 5.327931 45 53 19
-1.763241 -0.201980 5.344041 80 100 66
-1.766894 -0.008745 5.357513 120 98 55
-1.770280 0.043492 5.368724 87 59 26
-1.760252 0.176646 5.339691 28 24 21
-1.766869 0.284455 5.362509 47 68 52
-1.767165 0.325767 5.362170 73 70 32
-1.769048 0.371565 5.373989 71 71 29
-1.781244 0.517195 5.411142 50 33 6
-1.785103 0.537878 5.415148 88 68 32
-1.773862 0.701122 5.393641 75 54 30
-1.767735 0.805933 5.367898 74 62 21
-1.762697 0.819905 5.356400 138 125 73
-1.892630 -1.490489 5.689717 214 225 211
-1.761981 -0.229359 5.344803 23 42 10
-1.764561 0.023504 5.363588 113 89 52
-1.766326 0.077495 5.370313 77 72 37
-1.757934 0.195815 5.343595 25 29 23
-1.755960 0.211789 5.339436 40 32 21
-1.730983 -0.720652 5.259955 9 14 4
-1.748030 -0.471682 5.317458 64 66 23
-1.750588 -0.312122 5.324478 70 81 58
-1.750477 -0.264946 5.331774 23 44 15
-1.765953 0.365956 5.378602 61 70 29
-1.780951 0.456981 5.424670 48 24 10
-1.765298 0.611030 5.365336 111 94 38
-1.750286 0.641314 5.328722 95 81 42
-1.756170 0.825045 5.352835 116 98 51
-1.751591 0.838171 5.341297 114 101 56
-1.746529 0.852024 5.327807 129 116 67
-1.889386 -1.520014 5.710161 127 145 118
-1.718017 -0.803911 5.236394 63 88 81
-1.726111 -0.746395 5.253582 12 16 18
-1.733650 -0.621993 5.279125 52 52 1
-1.733731 -0.537516 5.287812 104 95 29
-1.751825 -0.213379 5.340408 47 62 39
-1.756808 0.308709 5.357243 20 32 4
-1.761971 0.388435 5.378938 46 49 39
-1.771557 0.441473 5.406470 46 43 27
-1.776766 0.489694 5.421393 76 62 28
-1.764251 0.726887 5.389258 69 52 26
-1.891656 -1.559436 5.722260 93 115 121
-1.720845 -0.843921 5.242861 20 35 24
-1.715317 -0.786454 5.236030 59 70 72
-1.733837 -0.588498 5.288186 64 52 0
-1.732548 -0.578068 5.289979 99 88 21
-1.736525 -0.491262 5.294932 38 41 12
-1.743523 -0.352996 5.322000 103 105 35
-1.755240 -0.015187 5.358271 67 76 42
-1.760435 0.114262 5.381045 95 62 26
-1.754398 0.263624 5.368709 30 27 21
-1.755171 0.288538 5.369825 58 79 57
-1.771950 0.508639 5.420272 83 63 21
-1.712903 -0.824746 5.235105 26 52 50
-1.710393 -0.802327 5.234426 18 40 40
-1.731821 -0.569107 5.291089 78 63 6
-1.751093 0.317596 5.360733 82 90 39
-1.769551 0.481769 5.418574 80 66 29
-1.770984 0.499291 5.424306 85 71 28
-1.769732 0.601219 5.410110 91 79 41
-1.713219 -0.757029 5.243774 56 71 73
-1.717339 -0.651951 5.253546 20 38 14
-1.723149 -0.525719 5.286984 97 89 17
-1.730452 -0.401329 5.302062 31 37 4
-1.737566 -0.281600 5.323497 94 100 57
-1.744064 -0.029821 5.347747 109 119 68
-1.753700 0.071730 5.377840 131 128 73
-1.747187 0.271734 5.359324 68 84 78
-1.752695 0.411802 5.378691 14 19 12
-1.753863 0.419880 5.388831 27 30 23
-1.756098 0.425933 5.395903 16 16 13
-1.757286 0.625027 5.386865 102 87 48
-1.749831 0.662990 5.367649 112 97 55
-1.752499 0.745404 5.381141 74 57 29
-1.720267 -0.493316 5.287905 71 72 34
-1.727417 -0.469790 5.305019 70 73 49
-1.728141 -0.373263 5.304372 41 48 10
-1.738024 -0.183083 5.336589 116 117 43
-1.750983 0.141999 5.384612 133 98 54
-1.750235 0.161864 5.382127 97 64 19
-1.770460 0.571956 5.428645 56 37 9
-1.934556 -1.855884 5.859396 143 162 179
-1.704719 -0.837662 5.236744 21 23 19
-1.706787 -0.731742 5.247887 50 67 57
-1.707905 -0.699443 5.252947 45 53 54
-1.727327 -0.445580 5.310232 93 87 20
-1.737344 -0.211652 5.337269 35 55 14
-1.746069 0.054513 5.372559 54 62 23
-1.750280 0.102492 5.382488 138 138 63
-1.744017 0.383820 5.372378 22 31 17
-1.744948 0.398792 5.378198 29 38 24
-1.746417 0.404695 5.386683 21 27 19
-1.772863 0.549778 5.456592 86 72 21
-1.767807 0.642681 5.439512 85 63 26
-1.744435 0.776380 5.378061 103 83 48
-1.725772 0.847606 5.325566 113 103 61
-1.883180 -1.560462 5.748237 124 138 117
-1.701271 -0.745215 5.243104 26 39 48
-1.705770 -0.652972 5.252588 13 27 14
-1.710290 -0.606729 5.272660 21 27 20
-1.723832 -0.419634 5.310899 27 27 6
-1.738194 -0.001251 5.357335 29 50 34
-1.746492 0.184948 5.383332 102 69 21
-1.741760 0.346800 5.370704 64 80 52
-1.702759 -0.672499 5.252517 37 50 50
-1.711462 -0.583906 5.276467 16 25 9
-1.710182 -0.544598 5.280704 23 26 6
-1.725023 -0.353645 5.325255 49 52 28
-1.731521 -0.224775 5.335829 43 49 21
-1.743951 0.684039 5.389262 91 78 35
-1.737922 0.791720 5.375384 111 96 52
-1.735238 0.805888 5.362518 108 92 48
-1.731441 0.815914 5.358186 111 95 52
-1.765156 0.907960 5.466136 95 80 58
-1.707972 -0.498707 5.284098 58 58 17
-1.715930 -0.396534 5.303648 65 71 41
-1.723354 -0.350492 5.323919 41 45 15
-1.729703 -0.012410 5.352464 40 51 49
-1.736978 0.227252 5.377869 89 64 13
-1.734636 0.366398 5.377494 16 37 24
-1.767452 0.533809 5.469291 84 70 26
-1.735507 0.740150 5.375933 111 91 58
-1.703004 -0.556937 5.277345 63 80 30
-1.704221 -0.514610 5.282669 47 53 26
-1.712463 -0.288530 5.306470 29 42 7
-1.715893 -0.276676 5.323388 43 51 17
-1.719805 -0.195476 5.330897 49 63 30
-1.731749 0.033916 5.361714 130 138 71
-1.787974 0.688766 5.559365 90 77 40
-1.753947 -1.306277 5.390123 215 221 209
-1.777329 -1.197233 5.469352 34 13 7
-1.687529 -0.842820 5.232661 69 85 83
-1.686695 -0.808525 5.233678 54 78 77
-1.691079 -0.666177 5.249968 31 55 59
-1.693858 -0.634625 5.254680 50 60 57
-1.699542 -0.585382 5.273095 8 16 15
-1.702837 -0.499438 5.282577 32 36 10
-1.705376 -0.455483 5.294293 80 76 10
-1.715079 -0.176600 5.328370 48 56 28
-1.722818 -0.128050 5.357835 17 38 1
-1.725800 0.058987 5.368123 81 93 70
-1.728786 0.077459 5.375681 49 68 29
-1.732090 0.273263 5.390064 86 61 24
-1.760314 0.636393 5.478514 64 58 36
-1.785731 0.696288 5.557245 90 79 42
-1.678080 -0.890835 5.218054 33 39 31
-1.683577 -0.787889 5.229971 24 35 43
-1.693585 -0.607539 5.266529 54 64 65
-1.707221 -0.417855 5.303367 91 90 28
-1.709018 -0.333691 5.314332 20 21 11
-1.713712 -0.169497 5.331256 36 47 27
-1.728334 0.098735 5.382851 136 141 74
-1.735746 0.399390 5.405386 23 34 19
-1.733246 0.420340 5.397291 29 30 29
-1.764550 0.554437 5.494354 87 67 18
-1.793979 0.676737 5.598194 88 69 37
-1.727846 0.782455 5.389213 107 93 49
-1.680654 -0.828837 5.231846 21 41 21
-1.679675 -0.763124 5.232576 34 47 54
-1.703014 -0.398125 5.302630 22 35 10
-1.711639 -0.274340 5.331421 35 44 31
-1.712370 -0.257471 5.340986 59 66 23
-1.767759 0.732332 5.523150 98 84 50
-1.739420 0.866741 5.426780 61 44 14
-1.751256 0.901859 5.471159 51 35 8
-1.694533 -0.505117 5.281450 36 48 33
-1.701859 -0.378712 5.314851 41 39 5
-1.719373 -0.114404 5.369688 117 116 54
-1.718558 -0.101504 5.370303 118 120 50
-1.719931 0.165051 5.380411 106 112 89
-1.718127 0.290723 5.369906 131 105 56
-1.717425 0.349040 5.368508 83 78 51
-1.729908 0.447263 5.411708 41 40 27
-1.759582 0.534669 5.495337 103 83 41
-1.776764 0.583002 5.555643 81 59 21
-1.761954 0.624833 5.508678 27 26 9
-1.754027 0.767454 5.489898 102 81 44
-1.764068 1.036448 5.579321 164 173 156
-1.843279 -1.652094 5.644142 90 107 83
-1.674504 -0.735553 5.237234 53 75 83
-1.695736 -0.316028 5.304956 69 76 47
-1.711292 0.008875 5.348268 70 81 65
-1.715330 0.151605 5.376051 61 64 38
-1.761081 0.554900 5.509781 90 72 26
-1.756572 0.640654 5.502886 27 21 10
-1.747244 0.903850 5.475870 60 41 13
-1.761940 1.029279 5.584028 154 166 149
-1.742821 -1.306708 5.407619 74 82 84
-1.669003 -0.747435 5.233410 20 39 49
-1.682415 -0.531719 5.274033 93 96 65
-1.682449 -0.497040 5.278537 33 45 33
-1.685959 -0.468505 5.286678 71 87 39
-1.699740 -0.190306 5.323667 35 40 24
-1.699161 -0.186878 5.322494 16 24 12
-1.698126 -0.176286 5.323387 18 30 20
-1.715336 0.119140 5.375610 78 86 69
-1.709273 0.320439 5.359763 121 105 59
-1.721581 0.394226 5.405015 67 79 61
-1.720346 0.402033 5.402482 37 48 38
-1.754277 0.750379 5.507413 103 88 53
-1.745873 0.820438 5.476012 94 82 57
-1.751152 0.927910 5.491244 50 35 2
-1.663986 -0.864555 5.222380 78 80 76
-1.668026 -0.822901 5.228912 38 49 47
-1.667220 -0.808796 5.231672 16 35 40
-1.668494 -0.702548 5.241234 53 70 75
-1.677562 -0.585354 5.266687 23 34 34
-1.709258 -0.100075 5.370440 110 105 31
-1.702394 0.044029 5.352817 86 97 51
-1.708436 0.186708 5.378289 70 83 44
-1.721790 0.447385 5.416519 16 12 4
-1.759448 0.730086 5.536229 93 78 38
-1.796834 -1.601516 5.564095 92 115 120
-1.788944 -1.560269 5.540968 113 123 103
-1.746446 -1.275248 5.434124 147 154 140
-1.675501 -0.518661 5.274212 63 74 53
-1.680719 -0.435219 5.288124 38 50 22
-1.681870 -0.429244 5.289147 31 43 20
-1.704627 -0.086778 5.362050 110 106 42
-1.700713 0.031697 5.352185 31 47 17
-1.709651 0.193903 5.379336 64 78 49
-1.771647 0.576652 5.592418 87 65 24
-1.757404 0.615304 5.538755 49 35 17
-1.734468 0.903754 5.472187 27 13 7
-1.661118 -0.838148 5.228037 58 32 19
-1.660022 -0.787682 5.227828 30 45 71
-1.665483 -0.672445 5.243812 43 69 82
-1.672101 -0.542004 5.269240 39 53 29
-1.677631 -0.442908 5.287971 87 94 41
-1.692032 -0.262551 5.331594 49 55 15
-1.692525 -0.246923 5.338807 23 34 3
-1.692088 -0.144817 5.334832 88 87 37
-1.698389 -0.074401 5.349894 104 101 31
-1.701699 -0.014337 5.372456 106 110 45
-1.697442 0.055163 5.352406 52 69 55
-1.706618 0.206844 5.383803 58 73 46
-1.709038 0.218027 5.390747 93 99 80
-1.704306 0.367819 5.379112 108 91 53
-1.756557 0.711467 5.554235 43 36 14
-1.737845 0.861308 5.479298 38 26 11
-1.827625 -1.681993 5.651320 99 119 97
-1.793841 -1.542525 5.580482 80 95 102
-1.792648 -1.503333 5.577556 82 102 78
-1.741980 -1.243014 5.449886 91 102 96
-1.784409 -1.168560 5.538190 110 86 56
-1.665403 -0.559276 5.266419 88 106 78
-1.670326 -0.519554 5.272378 40 48 18
-1.674755 -0.457933 5.286932 38 44 0
-1.678913 -0.386670 5.302563 45 61 26
-1.680707 -0.339182 5.302407 74 75 18
-1.687490 -0.169909 5.326981 69 84 45
-1.697477 -0.086051 5.359578 108 100 31
-1.693951 0.299007 5.349555 62 80 38
-1.771786 0.516411 5.636942 84 69 31
-1.758994 0.694067 5.570262 38 26 7
-1.732622 0.822760 5.474525 68 53 26
-1.730121 0.894010 5.474342 35 23 8
-1.733775 0.930900 5.487444 11 12 0
-1.760552 0.971530 5.591029 86 60 9
-1.654994 -0.750743 5.232733 19 30 46
-1.655997 -0.658032 5.242323 20 43 51
-1.660145 -0.638613 5.248023 50 61 65
-1.662445 -0.586837 5.259730 10 27 39
-1.672256 -0.407745 5.290379 59 72 35
-1.675644 -0.312698 5.302365 32 35 13
-1.698843 0.116588 5.369456 102 107 76
-1.749811 0.715275 5.551909 27 20 2
-1.723301 0.900964 5.468868 65 51 25
-1.732848 -1.310015 5.440515 107 118 97
-1.644203 -0.896963 5.210892 71 77 72
-1.645591 -0.875320 5.215195 29 38 30
-1.648722 -0.766267 5.227479 56 81 94
-1.650910 -0.729284 5.231889 14 27 39
-1.656214 -0.609267 5.253211 49 65 81
-1.677503 -0.287204 5.313396 85 78 13
-1.684007 -0.220532 5.331583 96 91 28
-1.694516 -0.058150 5.374663 50 53 15
-1.696957 -0.041791 5.382508 43 52 7
-1.686034 0.053983 5.350594 32 49 30
-1.699534 0.229335 5.390137 82 90 67
-1.687343 0.332016 5.357026 78 92 45
-1.698532 0.396112 5.396534 98 89 52
-1.700040 0.429089 5.405332 68 69 63
-1.723118 0.875809 5.471950 57 41 10
-1.786179 -1.478893 5.585194 68 83 89
-1.646384 -0.711165 5.234248 24 40 64
-1.661829 -0.479413 5.279384 28 41 19
-1.693342 0.350176 5.387404 83 90 57
-1.749235 0.617998 5.564549 59 40 24
-1.738540 0.740422 5.535163 45 33 13
-1.729638 0.761440 5.509852 71 58 33
-1.716550 0.918760 5.467642 44 37 21
-1.652084 -0.585312 5.256058 62 84 90
-1.659685 -0.436632 5.282250 86 95 66
-1.665469 -0.366962 5.304225 87 95 34
-1.672724 -0.160271 5.327642 62 65 26
-1.673806 -0.125091 5.331327 38 41 0
-1.689758 -0.020175 5.378844 35 39 21
-1.686626 0.145325 5.366907 113 107 92
-1.688745 0.243537 5.384678 92 90 69
-1.741446 0.659833 5.553067 25 15 6
-1.642503 -0.815051 5.236842 83 70 39
-1.641239 -0.793435 5.230976 83 74 57
-1.643033 -0.683685 5.236452 16 32 44
-1.651803 -0.544904 5.263652 75 94 59
-1.658831 -0.410174 5.290870 41 59 38
-1.683398 0.113218 5.365308 81 85 77
-1.686040 0.206350 5.375977 100 107 103
-1.789823 -1.584252 5.621818 100 114 123
-1.636690 -0.865135 5.221772 51 47 45
-1.640298 -0.661121 5.240558 23 33 40
-1.649361 -0.521091 5.269138 73 80 36
-1.659347 -0.342921 5.299371 55 65 40
-1.664307 -0.235545 5.320407 87 85 24
-1.673756 -0.093500 5.349790 93 88 20
-1.676426 -0.004718 5.360095 80 87 35
-1.679802 0.179243 5.367946 86 87 79
-1.674471 0.321508 5.351606 36 54 24
-1.716176 0.815273 5.488157 91 84 60
-1.756935 -1.205386 5.553287 148 125 79
-1.685097 -0.992302 5.359147 79 95 85
-1.633144 -0.787435 5.232892 112 90 46
-1.641412 -0.587955 5.252847 22 35 43
-1.649321 -0.432233 5.278412 99 109 69
-1.652836 -0.294550 5.294189 39 50 20
-1.664614 -0.111188 5.333158 43 54 12
-1.674174 -0.072215 5.356575 40 39 11
-1.683842 0.334438 5.400016 35 59 39
-1.685253 0.421177 5.406430 44 44 8
-1.740564 0.596727 5.590601 94 77 39
-1.738425 0.695524 5.574017 35 20 5
-1.708860 0.800429 5.481190 114 108 92
-1.711784 0.829700 5.499742 98 93 64
-1.714449 0.839286 5.501053 98 88 62
-1.700992 0.897999 5.467055 104 86 44
-1.633486 -0.833336 5.233559 83 66 39
-1.632479 -0.764467 5.231376 91 75 42
-1.631277 -0.753245 5.236097 92 71 32
-1.640154 -0.544765 5.259956 46 60 39
-1.652212 -0.375212 5.298179 73 79 27
-1.651074 -0.318227 5.296054 20 31 3
-1.662048 -0.210940 5.328650 89 92 29
-1.661852 -0.178165 5.328561 95 91 27
-1.657629 -0.148215 5.320459 35 46 9
-1.672202 -0.049918 5.365149 61 69 48
-1.662371 0.041512 5.339494 102 102 35
-1.681380 0.349854 5.402843 31 43 35
-1.676964 0.373110 5.386581 30 47 26
-1.738354 0.587054 5.597957 87 73 35
-1.710739 0.860503 5.502344 110 102 74
-1.738906 0.968634 5.601025 108 80 32
-1.726243 -1.326373 5.491284 79 92 90
-1.623391 -0.912122 5.212824 67 72 66
-1.622259 -0.882797 5.210834 25 36 31
-1.630458 -0.787918 5.235138 128 111 62
-1.627911 -0.736702 5.227837 83 75 47
-1.633711 -0.632008 5.243805 37 51 66
-1.630981 -0.619584 5.244637 9 20 50
-1.642087 -0.482666 5.271886 40 56 9
-1.656172 -0.170003 5.327155 81 76 19
-1.662667 -0.093872 5.344958 94 91 23
-1.666760 0.145836 5.363765 87 83 78
-1.666311 0.176113 5.363640 52 47 38
-1.671057 0.227762 5.377781 109 93 87
-1.672481 0.283729 5.382908 131 138 66
-1.676415 0.412357 5.401928 98 90 32
-1.735695 0.518385 5.606423 62 58 35
-1.731081 0.556873 5.583784 73 64 28
-1.705720 0.785903 5.490113 82 76 50
-1.720178 -1.286878 5.484921 110 123 106
-1.619819 -0.862034 5.215341 73 99 86
-1.624691 -0.845277 5.224774 78 76 47
-1.627843 -0.695024 5.234608 72 100 89
-1.632517 -0.563974 5.255297 95 109 89
-1.636264 -0.523322 5.264977 34 42 23
-1.637306 -0.446231 5.274970 40 51 38
-1.642699 -0.287440 5.291123 77 67 19
-1.655210 -0.187463 5.327208 80 77 23
-1.668181 0.116628 5.364113 42 52 30
-1.664633 0.157256 5.368186 63 64 55
-1.664994 0.187666 5.362410 39 40 35
-1.669763 0.250734 5.379694 28 30 24
-1.665722 0.295418 5.367491 133 140 72
-1.672782 0.367678 5.383145 75 88 56
-1.676898 0.391214 5.413409 107 111 56
-1.713251 0.735422 5.532874 43 32 17
-1.710373 0.752610 5.521506 78 77 33
-1.709431 0.769064 5.509254 97 90 72
-1.696627 0.894645 5.475039 77 59 28
-1.754862 -1.563977 5.568199 107 128 107
-1.621752 -0.735110 5.229050 115 97 47
-1.619641 -0.706697 5.230515 93 79 47
-1.628862 -0.590307 5.248551 16 32 47
-1.716534 0.711960 5.555429 46 33 17
-1.707731 0.745703 5.527253 55 49 18
-1.706125 1.026119 5.561543 156 166 150
-1.724463 -1.228091 5.518988 223 229 216
-1.740190 -1.204754 5.562531 140 121 78
-1.636613 -0.274144 5.298984 69 54 19
-1.642327 -0.253939 5.308231 25 31 12
-1.644077 -0.225585 5.314874 16 31 1
-1.645826 -0.165723 5.324228 50 56 12
-1.655166 -0.033303 5.350339 44 53 8
-1.661045 0.115539 5.365737 24 33 0
-1.659202 0.208482 5.364427 90 87 83
-1.658182 0.320190 5.359972 120 129 60
-1.727180 0.519600 5.604732 52 47 19
-1.719666 0.557067 5.578825 76 65 23
-1.694680 0.882314 5.488566 57 37 0
-1.685703 0.921047 5.458529 102 79 41
-1.699242 1.032062 5.555460 165 170 161
-1.612690 -0.898284 5.213954 64 39 22
-1.611576 -0.855347 5.217185 81 67 35
-1.613783 -0.715976 5.224862 125 107 71
-1.622978 -0.659364 5.258053 97 106 88
-1.625626 -0.505502 5.264593 91 102 79
-1.631436 -0.427922 5.275115 54 57 21
-1.633357 -0.387610 5.289133 104 120 62
-1.634865 -0.298724 5.293799 72 74 45
-1.643349 -0.201928 5.322737 32 46 14
-1.646648 0.007664 5.336319 28 35 16
-1.656503 0.097381 5.369096 101 102 36
-1.659865 0.292586 5.379856 124 130 59
-1.665556 0.330240 5.397739 121 132 60
-1.847196 -1.888697 5.867902 144 159 144
-1.615879 -0.621426 5.246323 80 106 94
-1.623330 -0.463263 5.268712 26 35 11
-1.652050 0.166653 5.363741 29 30 24
-1.657679 0.256681 5.378926 69 67 56
-1.664336 0.383733 5.405782 52 60 46
-1.662420 0.394337 5.404379 35 41 28
-1.719496 0.568438 5.591317 91 79 50
-1.702332 1.003994 5.580499 118 126 100
-1.715156 -1.331918 5.517966 91 109 89
-1.614585 -0.773320 5.246578 136 136 69
-1.618181 -0.447087 5.267090 55 73 41
-1.625812 -0.350162 5.292479 89 99 62
-1.627236 -0.321695 5.292342 36 54 38
-1.631993 -0.273333 5.304078 85 83 68
-1.634763 -0.133231 5.312852 58 66 27
-1.643171 -0.083299 5.339437 70 64 14
-1.640798 0.059259 5.341879 41 40 17
-1.647164 0.130715 5.361163 44 53 38
-1.653708 0.234126 5.374059 73 69 60
-1.712480 0.618761 5.583030 64 54 41
-1.700083 0.714531 5.538881 46 30 10
-1.680941 0.889549 5.478867 82 67 36
-1.614901 -0.504489 5.265857 27 32 23
-1.620680 -0.388359 5.284114 55 68 39
-1.635080 -0.102944 5.333827 25 29 8
-1.688842 0.768548 5.518125 93 85 62
-1.708816 -1.301945 5.519425 119 135 138
-1.603016 -0.716214 5.232437 134 133 76
-1.610635 -0.667371 5.258349 86 81 52
-1.608623 -0.615648 5.255583 87 77 42
-1.613049 -0.482489 5.267033 29 45 32
-1.633315 0.011941 5.333521 50 63 53
-1.639669 0.131388 5.356528 42 46 31
-1.641099 0.164078 5.362772 52 52 50
-1.641013 0.192292 5.356405 65 67 53
-1.645082 0.262892 5.374391 86 94 62
-1.650596 0.399147 5.395797 29 34 21
-1.696367 0.664882 5.550756 41 30 13
-1.696516 0.999274 5.584373 102 103 73
-1.827280 -1.914230 5.855022 123 135 118
-1.601480 -0.824511 5.229017 41 47 15
-1.606782 -0.649472 5.256246 112 104 73
-1.607782 -0.590340 5.259305 76 85 59
-1.610017 -0.441781 5.265865 106 114 67
-1.623852 -0.236477 5.310113 68 89 63
-1.625429 -0.131659 5.316065 18 30 14
-1.628484 -0.118585 5.327527 34 44 20
-1.630423 -0.061050 5.336831 26 34 10
-1.629100 0.023661 5.332965 78 85 45
-1.645831 0.316792 5.387154 38 49 6
-1.646029 0.418266 5.391259 93 85 61
-1.712460 0.525060 5.618209 71 64 34
-1.705384 0.549555 5.592495 94 80 52
-1.698736 0.686482 5.567775 48 44 30
-1.682819 -1.375270 5.416107 95 110 113
-1.700408 -1.264557 5.515406 130 143 124
-1.603704 -0.686686 5.249713 71 82 64
-1.605849 -0.570747 5.260511 89 95 74
-1.604081 -0.539250 5.260114 81 108 98
-1.611102 -0.389958 5.278665 61 77 56
-1.613438 -0.322929 5.287306 40 44 35
-1.619644 -0.257689 5.307262 60 70 51
-1.622661 -0.200184 5.314136 56 72 58
-1.623770 -0.181107 5.319006 40 42 34
-1.624362 -0.167150 5.318974 48 76 47
-1.625404 0.047599 5.332313 93 90 36
-1.630610 0.081469 5.353542 65 70 43
-1.644824 0.341419 5.399028 49 63 15
-1.704929 0.601444 5.602467 78 69 33
-1.677027 0.703762 5.517368 72 67 42
-1.681845 0.778673 5.521040 87 79 46
-1.693588 0.886459 5.563495 99 91 41
-1.678021 0.893167 5.506328 83 75 33
-1.594640 -0.818453 5.229396 61 70 62
-1.596163 -0.702600 5.242255 58 72 34
-1.607093 -0.407400 5.274885 80 101 77
-1.609887 -0.367686 5.287605 28 39 18
-1.619741 -0.156174 5.314988 22 32 17
-1.623663 -0.035742 5.335178 40 51 9
-1.623328 -0.006427 5.335708 85 88 37
-1.629204 0.175400 5.355091 45 42 38
-1.629610 0.182557 5.356155 26 24 18
-1.707002 0.584663 5.618862 84 67 34
-1.693955 0.636387 5.576562 46 37 18
-1.595615 -0.753852 5.245310 96 109 78
-1.593051 -0.624587 5.247636 125 129 70
-1.600330 -0.558094 5.260257 91 81 51
-1.617478 -0.178928 5.319148 60 74 54
-1.622165 0.103328 5.346710 29 38 5
-1.626448 0.140417 5.354364 25 28 8
-1.629578 0.213049 5.363194 51 48 47
-1.629391 0.268373 5.369082 22 34 7
-1.636291 0.391243 5.396384 24 33 25
-1.693268 0.830283 5.584495 71 67 27
-1.579632 -0.935269 5.204200 31 37 31
-1.581440 -0.856222 5.208775 62 67 41
-1.581985 -0.841991 5.213596 85 97 52
-1.588458 -0.785767 5.231543 49 57 31
-1.591235 -0.732648 5.241898 51 65 23
-1.596437 -0.658353 5.255753 44 68 51
-1.618087 -0.084127 5.334617 45 76 51
-1.634957 0.350874 5.397655 47 56 38
-1.632198 0.424423 5.389459 46 34 9
-1.691091 0.626744 5.591020 37 26 17
-1.682912 0.808181 5.562554 70 60 28
-1.836714 -2.005206 5.935758 77 97 103
-1.583300 -0.719819 5.238136 93 97 65
-1.592520 -0.523984 5.262723 87 82 57
-1.612098 -0.101161 5.328362 28 37 30
-1.611711 -0.036095 5.328341 32 45 32
-1.614466 0.075231 5.337594 26 30 2
-1.625910 0.232594 5.370837 53 41 39
-1.623461 0.267427 5.366955 39 48 39
-1.629765 0.398490 5.391142 74 88 64
-1.703931 0.513360 5.641381 34 27 10
-1.680411 0.966464 5.615629 111 97 59
-1.668513 -1.376926 5.428914 145 156 145
-1.588540 -0.599792 5.257259 139 138 72
-1.595843 -0.414904 5.273939 51 65 52
-1.593931 -0.393043 5.275857 80 91 48
-1.594499 -0.352780 5.283182 96 109 81
-1.597160 -0.302426 5.284402 75 81 69
-1.598797 -0.271010 5.299488 69 72 66
-1.606532 -0.141359 5.317330 63 80 62
-1.614733 0.172177 5.348653 31 22 12
-1.622183 0.244814 5.371304 57 50 44
-1.620373 0.294510 5.363794 16 24 1
-1.626200 0.373598 5.393896 103 102 40
-1.678458 0.699900 5.572071 91 81 50
-1.592847 -0.323387 5.280183 47 58 52
-1.605331 0.021450 5.329600 33 49 22
-1.610271 0.191870 5.350182 23 21 16
-1.630817 0.435441 5.415789 76 69 42
-1.684698 0.630111 5.598271 61 59 42
-1.688573 0.889885 5.610605 41 33 23
-1.569744 -0.855109 5.208628 72 95 81
-1.583110 -0.567816 5.261935 66 64 48
-1.592228 -0.251116 5.297397 70 70 65
-1.599833 -0.168183 5.312667 65 64 53
-1.603483 -0.113206 5.323469 58 70 67
-1.603512 -0.073888 5.328297 14 27 24
-1.601186 -0.016644 5.330512 9 27 10
-1.602581 0.005380 5.329577 34 48 29
-1.613526 0.269397 5.364726 39 42 23
-1.612895 0.302650 5.362472 51 64 46
-1.619264 0.316441 5.379676 66 80 56
-1.619605 0.376853 5.397658 99 95 38
-1.692746 0.576084 5.638542 56 40 24
-1.689655 0.589681 5.625199 58 49 27
-1.685050 0.622992 5.609690 27 24 10
-1.564763 -0.834769 5.209249 37 58 44
-1.568808 -0.811800 5.218533 119 129 72
-1.568458 -0.802154 5.220997 26 41 18
-1.576624 -0.675636 5.241751 125 133 78
-1.575737 -0.647039 5.247077 68 80 62
-1.575209 -0.628917 5.246061 65 74 48
-1.577562 -0.540695 5.258265 133 124 74
-1.580095 -0.514299 5.264191 124 109 64
-1.581209 -0.502084 5.267368 117 100 69
-1.581409 -0.491043 5.270320 98 83 55
-1.589556 -0.239354 5.298251 70 71 66
-1.593624 -0.197525 5.303800 33 34 20
-1.597079 -0.026272 5.328327 16 20 18
-1.606606 0.217596 5.358543 36 35 28
-1.676475 0.816155 5.587377 43 34 11
-1.674747 0.917464 5.603120 86 71 40
-1.816898 -1.994431 5.933287 136 156 142
-1.770451 -1.789717 5.758894 131 145 134
-1.627416 -1.174645 5.364192 107 124 121
-1.565267 -0.783380 5.222391 92 106 87
-1.569694 -0.701126 5.233630 81 101 74
-1.577183 -0.463375 5.266136 84 72 45
-1.581731 -0.326010 5.280985 44 51 45
-1.600225 0.169975 5.343110 95 92 44
-1.689074 0.542495 5.644278 21 11 2
-1.653225 0.754156 5.532476 93 72 46
-1.669967 0.808826 5.573616 46 38 6
-1.588718 -0.141350 5.312904 83 60 27
-1.592131 -0.016681 5.328938 18 24 19
-1.673027 0.709404 5.606693 87 76 33
-1.670858 0.906295 5.614496 89 75 41
-1.663326 0.921603 5.603096 109 94 67
-1.812654 -1.971604 5.944905 142 160 170
-1.569016 -0.611865 5.251299 133 141 69
-1.573406 -0.473328 5.268727 121 111 77
-1.570700 -0.432081 5.263641 84 71 46
-1.589363 -0.100699 5.322780 24 44 35
-1.588053 -0.059931 5.321914 66 78 80
-1.588755 0.050415 5.325816 22 40 22
-1.617326 0.447984 5.424780 81 72 45
-1.678999 0.653525 5.633804 80 75 50
-1.652992 0.780854 5.551116 47 30 6
-1.599344 -1.223689 5.299877 88 99 83
-1.559519 -0.880829 5.228240 132 135 64
-1.573668 -0.303185 5.278715 55 54 44
-1.578487 -0.206223 5.298157 78 87 76
-1.579964 -0.176254 5.302474 75 76 73
-1.589684 0.137362 5.339479 79 88 33
-1.589349 0.154054 5.341514 87 81 19
-1.601293 0.324738 5.376258 54 65 13
-1.600392 0.384293 5.391477 69 77 36
-1.601167 0.413300 5.389060 69 58 32
-1.651321 0.776144 5.554504 50 34 15
-1.675664 0.877447 5.637311 45 32 13
-1.655615 0.926208 5.597933 102 85 52
-1.651253 0.932504 5.587853 105 88 53
-1.645597 0.985273 5.586570 105 90 57
-1.753693 -1.845009 5.740915 110 123 137
-1.752098 -1.812270 5.745260 128 142 128
-1.550061 -0.771596 5.216805 98 115 74
-1.566183 -0.503072 5.271266 70 73 64
-1.563518 -0.421616 5.270483 127 112 63
-1.569656 -0.396544 5.277492 96 85 58
-1.570626 -0.295158 5.280316 75 81 71
-1.581338 -0.077172 5.320254 15 34 33
-1.581721 -0.033685 5.323746 64 75 85
-1.582410 0.072909 5.320837 7 16 7
-1.585262 0.184538 5.335521 23 33 4
-1.591307 0.240176 5.357188 72 75 34
-1.590576 0.285647 5.357327 41 42 2
-1.595536 0.367772 5.382198 31 33 16
-1.682119 0.503687 5.668331 74 63 41
-1.639127 0.813442 5.523496 53 37 13
-1.555750 -0.646593 5.243394 72 87 66
-1.556883 -0.540543 5.251569 99 94 75
-1.571589 -0.260343 5.297178 34 36 29
-1.680190 0.646347 5.673959 39 33 11
-1.650445 0.739572 5.569912 31 21 3
-1.665684 0.879848 5.634576 36 23 5
-1.799219 -2.002660 5.954975 81 107 118
-1.545605 -0.758082 5.223015 79 92 61
-1.547137 -0.702211 5.225709 65 76 50
-1.560447 -0.409522 5.272295 132 117 64
-1.566196 -0.235041 5.292792 41 46 36
-1.569361 -0.145958 5.304079 74 77 71
-1.576365 -0.102498 5.318364 34 47 39
-1.574327 -0.006908 5.325606 60 86 82
-1.574298 0.024275 5.322459 50 64 66
-1.577777 0.112837 5.332444 33 44 32
-1.679892 0.534902 5.681220 45 29 12
-1.679285 0.577024 5.684281 11 6 5
-1.635639 0.765016 5.541722 52 30 7
-1.627931 -1.512481 5.387304 118 134 123
-1.602541 -1.177977 5.357396 113 122 105
-1.537434 -0.826907 5.202793 139 148 68
-1.553161 -0.568778 5.252648 80 76 57
-1.568948 -0.080723 5.314222 16 27 29
-1.580841 0.259030 5.354212 47 52 28
-1.606168 0.437488 5.442237 82 74 45
-1.674273 0.670041 5.674704 52 46 14
-1.657427 0.694864 5.615341 46 42 17
-1.651644 0.722287 5.598979 48 26 4
-1.633074 0.751486 5.543430 44 27 0
-1.622699 0.784614 5.513485 45 32 18
-1.647573 -1.001218 5.496598 89 81 44
-1.539675 -0.865223 5.220144 61 72 37
-1.562854 -0.163974 5.295561 38 53 45
-1.569217 -0.118211 5.317696 68 79 74
-1.568005 -0.039561 5.317557 23 35 58
-1.573810 0.139050 5.338561 12 32 14
-1.581193 0.361775 5.372831 23 26 7
-1.688192 0.609629 5.736886 10 8 7
-1.683526 0.615040 5.724392 11 11 7
-1.741335 -1.842543 5.760554 163 180 167
-1.534405 -0.777943 5.214674 64 94 76
-1.554419 -0.374982 5.286850 105 86 61
-1.556179 -0.329689 5.282735 91 91 69
-1.552501 -0.304234 5.273501 95 109 89
-1.557983 -0.275824 5.297456 77 104 101
-1.558183 -0.216938 5.291728 68 70 59
-1.564394 0.054692 5.321613 65 88 86
-1.570253 0.172986 5.334620 15 33 17
-1.742924 -1.828117 5.782783 138 160 165
-1.552435 -1.019893 5.261227 100 117 81
-1.535558 -0.900487 5.220238 70 80 60
-1.530326 -0.853404 5.212395 61 75 42
-1.532961 -0.714166 5.224752 42 56 40
-1.541058 -0.551824 5.247701 65 65 60
-1.550822 -0.478064 5.278990 72 71 71
-1.555049 -0.187303 5.291786 42 51 44
-1.671000 0.563152 5.693525 33 23 20
-1.650140 0.688303 5.623674 81 74 49
-1.783099 -1.991387 5.955551 141 155 145
-1.539776 -0.606172 5.251441 117 124 84
-1.537666 -0.564601 5.248511 107 107 102
-1.549695 -0.357927 5.284526 113 103 83
-1.550775 -0.164656 5.293990 42 46 37
-1.562525 0.136479 5.336537 9 27 26
-1.668812 0.643672 5.705182 71 61 51
-1.667262 0.654136 5.699061 68 61 47
-1.625866 0.736426 5.560805 36 23 13
-1.620596 0.760440 5.541276 49 32 13
-1.780491 -1.971777 5.966547 93 114 115
-1.545727 -1.012989 5.257673 89 100 71
-1.528472 -0.884495 5.217999 43 68 47
-1.533450 -0.629553 5.245520 75 80 35
-1.533589 -0.524579 5.247816 69 62 60
-1.535285 -0.510932 5.254846 106 98 95
-1.544516 -0.453254 5.283114 78 82 66
-1.551976 -0.106221 5.312771 44 44 44
-1.551438 -0.062766 5.305989 65 77 82
-1.556079 0.087798 5.323538 66 81 78
-1.558352 0.162257 5.336423 37 54 41
-1.566130 0.376879 5.365584 57 61 31
-1.661582 0.491923 5.697014 34 29 11
-1.663482 0.666688 5.697672 79 71 52
-1.641743 0.695768 5.622572 94 82 53
-1.522687 -0.869414 5.213461 61 89 69
-1.547778 -0.267072 5.303731 83 73 29
-1.541554 -0.209879 5.285319 80 107 92
-1.548249 -0.082318 5.308144 22 39 36
-1.548962 -0.039063 5.310672 47 61 65
-1.554775 0.116097 5.332119 58 78 84
-1.560433 0.339321 5.357317 112 102 38
-1.667944 0.516055 5.722007 51 35 13
-1.627993 0.712434 5.586384 75 60 37
-1.685311 0.874151 5.787130 71 40 18
-1.632345 -1.018084 5.506452 101 73 45
-1.518480 -0.806049 5.212408 140 145 78
-1.521765 -0.738354 5.227324 135 141 69
-1.520883 -0.692329 5.224831 50 57 42
-1.538018 -0.430141 5.278852 60 66 35
-1.537372 -0.335872 5.281661 135 138 67
-1.544530 -0.284991 5.300296 135 111 61
-1.543847 -0.243832 5.308423 97 68 39
-1.547006 -0.124448 5.316560 57 45 41
-1.549497 0.031725 5.317544 20 27 49
-1.554021 0.218656 5.339267 38 45 24
-1.668037 0.562764 5.729973 26 15 9
-1.606501 -1.479034 5.423734 77 95 88
-1.517538 -0.670074 5.224703 133 141 65
-1.527816 -0.510827 5.254308 72 68 62
-1.533527 -0.355725 5.280873 50 53 48
-1.541666 -0.233869 5.310287 90 82 56
-1.545093 -0.107819 5.313902 38 38 35
-1.544052 -0.009939 5.314800 73 89 92
-1.548351 0.191578 5.333938 75 86 44
-1.550057 0.295256 5.340199 50 53 21
-1.553813 0.345138 5.355806 106 104 37
-1.663196 0.629533 5.734855 83 79 56
-1.624757 0.978803 5.611851 109 98 65
-1.523524 -0.606362 5.247815 57 73 60
-1.530097 -0.491718 5.271337 62 64 53
-1.536789 -0.313121 5.295280 137 139 65
-1.547506 0.200864 5.334873 32 37 20
-1.546975 0.387297 5.350121 84 80 44
-1.675526 0.525175 5.776558 66 58 45
-1.612557 0.738471 5.565285 77 74 56
-1.610877 0.747473 5.563474 93 80 55
-1.609674 0.759060 5.560754 66 58 38
-1.554918 -1.405210 5.276712 115 131 115
-1.504811 -0.983022 5.195294 85 66 39
-1.508017 -0.922569 5.207130 43 50 26
-1.506899 -0.905887 5.206054 68 75 69
-1.519040 -0.621891 5.246187 77 88 78
-1.519663 -0.588831 5.250772 84 86 72
-1.528377 -0.453014 5.282516 71 77 73
-1.528639 -0.400658 5.279951 75 78 43
-1.537276 -0.084000 5.313154 18 30 37
-1.537639 -0.023637 5.314859 15 45 49
-1.540466 0.134519 5.330623 17 44 41
-1.542183 0.232831 5.341258 41 63 48
-1.544831 0.250951 5.345902 57 69 50
-1.659696 0.585341 5.740529 68 56 30
-1.659294 0.594722 5.740680 46 33 18
-1.660296 0.606861 5.746489 68 53 31
-1.665715 0.623082 5.763421 39 31 10
-1.655073 0.657444 5.724882 94 87 53
-1.626373 0.780039 5.630259 78 71 50
-1.611159 0.995158 5.590982 151 165 157
-1.758066 -1.985542 5.961427 124 147 154
-1.708807 -1.882079 5.753882 137 152 136
-1.498930 -1.015437 5.183320 89 99 53
-1.502606 -0.846338 5.206188 81 95 87
-1.508177 -0.795757 5.218141 143 145 78
-1.516274 -0.563261 5.245282 85 83 81
-1.533346 -0.215920 5.310523 129 103 56
-1.528389 -0.193102 5.294428 100 85 41
-1.534566 0.018952 5.314812 48 64 70
-1.540984 0.239615 5.342544 40 50 41
-1.641166 0.708209 5.682635 90 77 42
-1.632837 -1.550749 5.509055 102 120 105
-1.501838 -0.905285 5.204855 102 110 94
-1.511901 -0.535881 5.244354 85 91 78
-1.521610 -0.418212 5.281850 64 72 58
-1.536576 0.290843 5.334690 23 37 13
-1.674282 0.516249 5.819414 50 46 35
-1.666520 0.555098 5.790683 48 40 23
-1.594478 -1.506811 5.416286 87 101 108
-1.602695 -1.205048 5.476751 60 89 62
-1.509458 -0.652175 5.239575 42 48 31
-1.515721 -0.359725 5.274083 115 117 103
-1.527230 -0.300601 5.308117 136 142 69
-1.528984 -0.282112 5.312815 138 144 67
-1.528543 -0.269837 5.315746 140 142 71
-1.526042 -0.155430 5.303074 96 94 62
-1.526199 -0.050869 5.312609 33 48 76
-1.531409 0.179008 5.324356 51 66 33
-1.533322 0.232278 5.340151 69 94 76
-1.662894 0.567074 5.784733 88 82 54
-1.619140 0.765736 5.641330 87 78 39
-1.657888 0.827492 5.779072 90 80 53
-1.658471 0.842612 5.784424 89 77 57
-1.670251 0.880568 5.821598 79 71 48
-1.668965 0.894131 5.804567 72 58 36
-1.663810 0.911293 5.789362 66 51 33
-1.600227 -1.233098 5.472825 101 111 101
-1.495039 -0.926597 5.204620 105 109 83
-1.512942 -0.474172 5.272108 87 86 67
-1.516088 -0.455496 5.277798 73 69 60
-1.512057 -0.316453 5.280703 136 146 58
-1.526515 -0.026946 5.319977 16 39 52
-1.525431 0.130971 5.324870 23 41 50
-1.529110 0.159933 5.328535 92 112 76
-1.529940 0.200140 5.332999 54 60 31
-1.531829 0.310392 5.337926 40 53 37
-1.530760 0.404361 5.346853 45 48 29
-1.669811 0.539470 5.825114 45 45 37
-1.654048 0.654074 5.762332 61 48 19
-1.665695 0.731138 5.824642 88 80 43
-1.742425 -2.010694 5.949610 147 168 143
-1.602254 -1.600376 5.464721 112 134 141
-1.598946 -1.251497 5.474011 142 152 143
-1.497243 -0.772332 5.224399 111 98 69
-1.497217 -0.765868 5.225815 91 74 43
-1.497320 -0.756754 5.226815 96 88 55
-1.501680 -0.637083 5.240339 120 129 100
-1.522918 -0.287302 5.308776 143 147 70
-1.521792 -0.275512 5.311190 139 142 73
-1.521863 -0.049430 5.311000 73 102 109
-1.520875 -0.005094 5.314966 19 35 39
-1.519837 0.062807 5.308886 20 36 37
-1.522268 0.083446 5.313690 56 66 70
-1.528409 0.269162 5.334579 57 70 40
-1.526829 0.332682 5.341920 51 71 43
-1.661340 0.556966 5.808010 77 71 45
-1.690302 -1.893654 5.752914 158 171 160
-1.592038 -1.466596 5.459605 99 118 122
-1.485381 -0.998830 5.191424 93 66 32
-1.489666 -0.954428 5.202310 52 62 29
-1.492659 -0.746092 5.228152 72 57 39
-1.521716 -0.122140 5.322923 104 81 47
-1.521133 0.108950 5.326058 62 79 83
-1.523423 0.237146 5.340363 35 47 29
-1.524257 0.318723 5.338481 49 78 54
-1.662200 0.514642 5.822924 57 55 38
-1.661508 0.731961 5.829120 75 66 36
-1.646608 0.786436 5.772956 89 77 30
-1.577744 1.040367 5.538135 176 184 173
-1.686092 -1.923246 5.740245 149 164 169
-1.497656 -0.555562 5.249751 94 94 87
-1.506261 -0.429958 5.279397 105 122 85
-1.651393 0.820473 5.804444 103 88 52
